ply
format ascii 1.0
element vertex 685
property float x
property float y
property float z
property float nx
property float ny
property float nz
end_header
-0.17229846 -0.04815751 -0.22590947 -0.9987481 0.021442238 0.04519329
-0.1611599 0.04416474 0.04938262 -0.74553984 0.6659164 -0.02693702
-0.17080483 -0.026577927 -0.19460817 -0.992417 0.12249238 0.010206437
-0.14965765 0.06046642 0.04723666 -0.7550115 0.65406674 -0.04641634
-0.08353434 0.08507868 0.30656052 -0.09376013 0.9568147 0.27516305
0.16767506 -0.10656376 -0.26239276 0.715132 -0.58210874 0.3869568
0.17910177 -0.09691836 -0.05615147 0.9516109 -0.30613422 0.026804714
-0.16399026 -0.04595498 0.3147763 -0.9702496 -0.015545075 0.24160749
0.17219238 -0.00416742 0.11457114 0.99971443 -0.0019983305 0.023812167
-0.15626435 -0.00992049 -0.3672566 -0.8900172 0.2643189 -0.37149012
-0.1230389 -0.0028831668 -0.3995547 -0.47631595 0.5936166 -0.6486466
-0.1469467 0.0050445353 -0.3665337 -0.6210524 0.6370602 -0.45656124
-0.14020629 0.07261004 0.24760821 -0.86982554 0.48962817 0.060562346
-0.16790698 0.020702854 0.24119243 -0.99167144 0.1258277 0.027479177
-0.11859368 0.1114617 -0.058529172 -0.53175145 0.7829212 -0.32291606
0.1693916 0.06806529 -0.10002247 0.0455125 0.75707203 0.65174425
0.041491162 -0.10166038 0.30403495 -0.001463564 -0.9991264 0.041764934
-0.03307611 -0.020251945 0.44837978 -0.05156213 0.05043592 0.9973954
-0.16825913 0.020465657 -0.08303126 -0.9816486 0.18483801 -0.04691351
-0.079544336 0.035201635 -0.31848434 -0.084173985 0.9914497 -0.09971077
-0.071551494 0.10120254 -0.100079216 -0.05595797 0.9168154 -0.39537105
0.09846466 0.015340132 -0.3843058 0.13044617 0.97301614 -0.1903243
0.001858288 -0.108774796 -0.2640866 0.0013503814 -0.99998415 0.0054701893
-0.13802306 0.04785606 0.37205744 -0.8262093 0.4585593 0.3272639
-0.17161562 -0.03151376 -0.21383098 -0.999144 0.02959958 0.028898278
-0.1704429 -0.03652611 -0.2716038 -0.9530706 -0.095792785 -0.28719398
-0.1473218 0.06626382 0.044478986 -0.9160571 0.39996296 -0.029479438
-0.11671516 -0.10564412 -0.41418344 -0.2539137 -0.9151925 -0.31297052
0.13630731 0.075307555 -0.123862065 0.50434303 0.7650746 -0.4003734
0.16909939 -0.08742166 0.28549352 0.9780737 -0.0016118159 0.20825258
0.12814213 -0.10586141 -0.12204671 0.00022887191 -0.99995667 0.009307458
-0.12950425 -0.10560181 0.08839093 -0.010009256 -0.9999491 0.001274044
0.17288437 -0.037731938 0.11075933 0.9969855 0.07232161 0.028098024
-0.07534157 -0.052212104 0.43537518 -0.4316339 -0.2148889 0.87607926
0.17640705 -0.06453301 -0.16944268 0.99569565 0.090520546 0.019902974
0.023087058 -0.046311837 0.44632116 0.066076756 -0.1261575 0.9898071
0.1071515 0.1290978 0.02955047 0.1185309 0.99259406 -0.026595997
0.017329458 -0.10764979 -0.32706478 -0.0059487345 -0.9996314 -0.026487121
-0.023377951 0.03495386 -0.34109417 -0.010730776 0.99469894 -0.1022687
-0.1727661 -0.10471426 -0.026992347 -0.22756559 -0.97370404 0.010690004
-0.14825545 0.045582738 -0.16049519 -0.7262123 0.67834204 -0.111658916
-0.16522053 -0.12840609 -0.28504384 -0.30102742 -0.9506846 0.074707426
0.16393144 -0.056891896 0.2560157 0.9936517 0.0036691849 -0.11244081
0.12776396 -0.093393914 0.34410527 0.028020453 -0.9920845 0.12240593
-0.055891052 0.13647425 0.075176336 -0.018808382 0.99969673 -0.015894836
0.0747109 0.10761551 -0.08816605 0.12535864 0.77985406 -0.6132804
0.15126082 -0.0065452396 0.3580733 0.95579743 0.10789473 0.27351418
-0.096441895 0.13264911 0.06338427 -0.07327921 0.9971816 -0.016098298
0.11688895 0.08949561 0.2832555 0.2464521 0.91931725 0.3067851
-0.16336481 0.03352652 -0.068368964 -0.81166047 0.5837082 -0.022181455
-0.04814492 0.13669881 0.13272229 -0.014569778 0.9998377 0.010603137
-0.14036441 0.029288705 0.38073137 -0.960216 0.10130208 0.26023677
0.1117987 -0.08712895 0.3813988 0.033121377 -0.9916138 0.1249201
-0.071004175 -0.107015304 -0.39906284 0.026692778 -0.9993361 -0.02479432
0.059790585 -0.10734718 -0.31033778 0.022981288 -0.9997356 -0.00078561984
0.065920584 -0.022635844 -0.44036162 0.1617515 0.2964008 -0.9412667
-0.09311311 -0.059964955 0.42791605 -0.36253905 -0.18961994 0.9124745
-0.1241622 0.11649709 0.016748397 -0.9038703 0.42717117 -0.023308422
-0.10863736 -0.12407625 -0.31601185 0.5933906 -0.78803456 -0.16397934
-0.028673263 0.13294189 0.015563491 -0.005429909 0.99959135 -0.028064698
-0.15378265 -0.026294779 0.35432205 -0.9630913 0.06956165 0.26003143
0.05817605 0.05179155 -0.2056488 0.056916147 0.98444355 -0.166227
-0.080280244 0.07573343 -0.14620931 -0.16296548 0.77831995 -0.60635006
0.0066386224 0.13478483 0.030795043 0.006424375 0.9706403 -0.24044992
-0.10873171 -0.10656237 -0.19670849 0.011687289 -0.9999193 0.004973964
-0.10905565 -0.059990454 0.42047387 -0.5105487 -0.15560454 0.8456519
0.13138391 0.095904656 -0.073416606 0.7734017 0.6305529 -0.06521434
0.008864651 0.122402005 0.23189004 0.06377996 0.8822987 0.46634868
-0.022724368 -0.10664577 0.01449523 -0.0009612027 -0.9998949 0.014463812
0.12419198 0.12075356 0.04032837 0.867572 0.49607193 -0.035092004
0.16831644 -0.10098488 0.16538481 0.62501603 -0.78061193 8.9333946e-05
-0.1108033 0.07274764 0.33167103 -0.2642868 0.9081942 0.32455498
-0.03200604 -0.10199992 0.3007691 0.0047830394 -0.99828434 0.05835613
0.042502422 0.010985914 0.43831623 0.07845462 0.37771684 0.9225914
-0.13237432 0.08907607 -0.08029158 -0.88371474 0.46771374 -0.017091498
0.11502201 -0.105750084 -0.103509754 -0.0010757424 -0.999998 0.0017013515
-0.116290376 -0.13077968 -0.2951737 0.26710021 -0.95291585 -0.1435578
-0.055685464 0.09971068 0.28547025 -0.07545519 0.88340354 0.46249828
-0.1756396 0.051074687 -0.12230542 -0.54411757 -0.5484916 -0.63489604
0.027344476 0.12709358 0.21255752 0.088814996 0.9219986 0.37686923
-0.09989537 0.13096488 0.15548721 -0.43122533 0.8847224 0.17694885
-0.17308848 -0.06377481 -0.15751527 -0.99791694 0.058182385 -0.027865417
-0.0024929815 0.10132996 -0.10724376 0.0011190202 0.90538406 -0.42459217
0.13335614 0.004282947 -0.38336337 0.4670316 0.7433668 -0.47883955
-0.1645469 -0.10031737 0.24005078 -0.9909006 0.1345675 -0.0027518296
0.17179534 0.022239558 0.080055974 0.9915415 0.12890524 0.015129723
-0.17164108 -0.02983117 -0.21652475 -0.9996246 0.019722207 0.019020567
-0.113784954 -0.12613893 0.22335376 0.5312366 -0.81772935 -0.2215997
-0.12277041 0.12033133 0.043551594 -0.82895476 0.5593098 -0.0025517826
-0.17120746 0.0167572 0.13649651 -0.99845266 0.04728238 0.029266778
-0.04004509 0.078239925 -0.14963332 -0.009991159 0.91834587 -0.3956527
0.1685344 0.015863912 -0.19704424 0.9516998 0.30479777 -0.036957946
-0.17421111 -0.08445093 -0.20484371 -0.9994851 0.022701012 -0.022678135
0.1293732 0.10809346 0.14797385 0.9649556 0.2609397 0.027769566
0.15272243 0.0594919 0.031008083 0.9042274 0.4269058 -0.011148311
0.09400706 0.10920101 0.25117785 0.11036869 0.96300393 0.24584989
0.11865778 -0.12623508 0.21872988 -0.3034389 -0.93893486 -0.16225338
-0.017163634 0.1306111 -0.012212721 -0.016959736 0.97233737 -0.23296443
0.17297052 -0.1043354 -0.34634027 0.44104707 -0.81242514 -0.38136974
-0.04210103 0.13433337 0.1740518 -0.14499168 0.9674379 0.20746417
0.032550022 -0.10569551 0.1739151 5.3405478e-05 -0.9999947 0.0032653636
-0.05176721 -0.046081603 -0.4462242 -0.08487717 -0.01106763 -0.99632996
0.13967015 -0.1054657 -0.007646483 -0.00051879877 -0.9999999 2.2888182e-05
-0.16146037 -0.079125844 0.3167885 -0.97129804 -0.09742474 0.2169992
-0.1320106 -0.11397772 -0.34037688 -0.04363396 -0.75543314 -0.6537712
0.06477521 0.10162132 0.27870965 0.030065663 0.932064 0.36104396
0.16792989 0.024957523 -0.12693554 0.96541345 0.2521365 -0.066363335
0.14409514 -0.039021704 0.38477802 0.9599885 -0.0349654 0.2778482
0.16275167 -0.001675653 -0.34742975 0.8299279 0.493588 -0.25998175
-0.13192981 0.09350824 0.21942067 -0.85317945 0.50966936 0.111004315
0.13772283 -0.10547422 0.024040319 0.00039672846 -0.9999999 -0.00033569333
-0.0079081 0.03237647 -0.35113373 -0.028859457 0.9630007 -0.2679492
-0.061933886 -0.10839479 -0.36139518 0.01799482 -0.99983764 -0.0009611476
0.14028846 -0.0100433845 0.39533812 0.9571457 0.049890283 0.2852772
-0.13713598 0.08003692 -0.04499041 -0.84944713 0.52752686 -0.012449554
0.16704042 -0.12595776 -0.3171176 0.14368482 -0.8975367 -0.4168723
-0.16517998 -0.017133215 -0.35289362 -0.8332281 0.3483481 -0.4294002
-0.112646274 0.046376597 -0.21583536 -0.05801602 0.99741286 -0.04244666
-0.062770076 -0.106779404 -0.4181396 0.020956883 -0.9995854 -0.019744312
0.035168372 -0.10797342 -0.30303907 0.023425762 -0.99949914 -0.021275349
0.104739055 -0.10605753 0.19735144 -0.33050546 -0.9410643 -0.071862124
-0.04630112 0.076062545 -0.15299468 -0.06909217 0.7817041 -0.61981034
-0.13990182 -0.109223746 -0.3696295 0.009215912 -0.9999569 -0.0010756983
0.02107871 -0.07943264 0.42885238 0.080486365 -0.7848169 0.6144789
-0.008758238 0.02954822 -0.36528265 -0.024326349 0.89413995 -0.4471264
0.1491687 -0.020619418 0.36943042 0.96874166 0.09223858 0.23028603
-0.14510055 -0.13110057 -0.28674674 0.0056873034 -0.96186614 0.27346155
-0.13766275 0.066452704 0.2986066 -0.8411941 0.534119 0.08431708
-0.1340433 0.09053763 0.20489492 -0.84787667 0.5291632 0.033036087
-0.050779033 -0.10597541 0.031413134 -0.016354606 -0.99982786 0.008764666
0.071710564 -0.00944063 0.44020137 0.25573778 0.19568571 0.946734
0.1700443 0.010127245 -0.20787518 0.9103407 0.41183564 -0.04088032
-0.119143404 -0.09306757 -0.41837838 -0.45348135 -0.055947147 -0.88950807
-0.17173707 -0.0250022 0.11979713 -0.999879 0.011702076 0.010245037
0.17176242 0.00094443024 0.2018568 0.9992044 0.035524692 -0.018128267
0.07965247 0.046142574 -0.24672495 0.097376205 0.98986304 -0.10338765
0.072351195 -0.107748955 -0.36081454 0.010119665 -0.9995515 0.028185595
0.14486429 0.07285783 0.1544618 0.9783917 0.20554347 0.02239361
-0.15851715 0.015819428 -0.3095065 -0.66652787 0.730463 -0.14887688
0.17883241 -0.079430126 -0.10577974 0.99020445 0.13962524 7.55466e-05
0.06950998 -0.10762675 -0.29057598 -0.007116136 -0.9997065 -0.023156043
-0.051929295 0.10109208 0.2833741 -0.03509866 0.8853833 0.46353477
0.1341097 0.018766861 -0.34463054 0.20300542 0.955347 -0.2147111
-0.040675066 -0.10301496 0.2865287 -0.008833386 -0.9946818 0.10261602
0.14453308 -0.10510467 0.14719103 -0.0027846524 -0.99997246 0.0068815243
0.12519403 0.12016722 0.09578456 0.94999295 0.3122238 -0.005450399
-0.16455366 -0.069707565 0.26979813 -0.9958357 0.059459 -0.06910799
-0.04087234 0.010640562 -0.42059857 -0.020490654 0.8756408 -0.48252803
0.036430687 -0.101598404 0.3054147 -7.6226647e-06 -0.9991179 0.04199326
-0.100065105 0.015598605 -0.3843 -0.16019838 0.96239436 -0.21939349
0.15372066 -0.10547676 -0.029013712 0.008056365 -0.9999658 0.001884396
0.08852703 0.07044614 0.36715367 0.044249464 0.99894345 0.012407531
-0.11285481 -0.10578251 -0.044873215 -0.0023268883 -0.9999669 0.0077969832
-0.10484563 -0.11455633 -0.31232685 0.7855542 -0.61841303 -0.021677775
0.1612715 0.04437656 0.20092621 0.85464716 0.518282 0.031016573
0.007958138 -0.09284121 0.36689663 -0.00038559295 -0.9719316 0.23526362
0.035627253 -0.10736168 -0.11389857 0.03782597 -0.9992379 0.009636206
0.13573256 0.031202119 -0.28638685 0.18073608 0.9734319 -0.14058736
0.037789207 0.13670497 0.070841044 0.0047909 0.9999249 -0.011275399
0.16361164 0.044167295 0.02160054 0.88548386 0.46430615 -0.018389031
0.040211413 0.13695262 0.10948376 0.008117362 0.9999614 -0.003356804
0.08507049 -0.10541922 0.10815957 0.0011901817 -0.9999968 0.0022506642
-0.16556415 -0.02239138 -0.31587756 -0.6264298 -0.74896383 0.21596023
0.1559122 0.01876213 0.32308573 0.97802746 0.14439993 0.15036933
-0.12638693 0.11210207 0.0871786 -0.927099 0.3748091 -0.0023836698
-0.10545111 -0.10177321 0.29571196 -0.0245402 -0.9983033 0.052804846
0.102946706 -0.105526835 0.0070753423 0.002014154 -0.99999696 -0.0014114337
0.1431477 0.04912075 0.34326673 0.7726378 0.62316436 0.1212316
0.17313129 -0.10522154 -0.13609019 0.050252277 -0.9987364 -0.0006172001
0.04192168 -0.10684903 -0.057197493 0.034896567 -0.9993365 0.010430086
0.15585068 -0.12999962 -0.27633414 0.042688236 -0.9695429 0.24117263
-0.016524948 0.08230919 -0.14226769 -0.0026925434 0.84429914 -0.53586537
0.14825486 -0.031119741 0.37330562 0.9790445 -0.01593995 0.20302147
0.07925716 -0.10523542 0.1666034 0.0065992693 -0.9999762 -0.0020217414
0.04833634 0.10177691 -0.10296559 0.03493415 0.86263907 -0.50461215
0.029919729 0.02691679 -0.3732105 0.015267073 0.96857977 -0.24823403
-0.15085296 0.059402883 0.054463495 -0.8679071 0.4950159 -0.041188378
-0.17239451 -0.029701773 -0.034667354 -0.99821836 0.05960888 0.0026350673
0.08403407 -0.10522024 0.16727063 0.00072479073 -0.9999976 -0.0020828198
0.12631708 -0.10686129 -0.19137055 -0.0182214 -0.9997135 0.01552137
-0.17192277 0.010568161 0.08634317 -0.9999387 -0.010428743 0.0037152874
-0.00918916 -0.091676764 0.37127867 0.0034458637 -0.95858765 0.28477696
0.17314829 0.0039303224 -0.009706654 0.99999356 -0.0007171585 0.0035247577
0.052142683 -0.08187444 -0.44141158 0.107025996 0.11530629 -0.9875474
0.006372126 0.13671502 0.14915098 0.0064836903 0.9998003 0.018901864
-0.016388178 0.13332577 0.02350364 -0.011953729 0.9979613 -0.06269236
0.17308314 -0.010429952 -0.025099685 0.9999883 0.004806462 0.00048827555
0.08158052 -0.10543905 0.10071607 0.0028381203 -0.9999949 0.0014648363
-0.15110473 0.056747656 -0.1273963 -0.50836235 0.6349711 -0.5817039
0.17549635 -0.0155397765 -0.24724953 0.9994777 0.032316487 -0.00015250819
-0.13391499 -0.105315246 0.14674826 -0.0074838866 -0.99992657 0.009528414
-0.06558384 -0.105675444 -0.4321479 -0.034787003 -0.9914333 -0.12589581
0.041554924 0.074945405 0.35610145 0.02497234 0.9753202 0.21937859
0.005909009 -0.10547969 0.21806349 0.0039289314 -0.9999474 0.009467581
0.1298917 -0.10715504 -0.22595291 -0.027673822 -0.99952143 0.013825472
-0.17873214 -0.083903596 -0.044061802 -0.9709759 0.2386844 0.015349289
0.1635633 0.041099694 0.18218121 0.9004431 0.43442068 0.021928515
0.13311662 -0.111593425 -0.33960098 -0.07478868 -0.7859556 -0.61374295
0.04227924 -0.10615376 -0.0006720185 0.016484767 -0.99985725 0.003722613
-0.14754438 -0.043218616 0.37550426 -0.967335 -0.109241426 0.22875607
-0.105835125 -0.105647095 -0.01584133 -0.0018310464 -0.99999547 0.0023879898
-0.04620387 0.008264755 -0.4248046 -0.04529775 0.9323597 -0.35868305
-0.14098264 0.07590861 0.19538936 -0.92339724 0.38358408 0.014167419
0.061603535 0.13669062 0.10366736 0.010787294 0.9999379 -0.0028074428
-0.17138971 0.02484817 0.06205267 -0.9917171 0.12820928 -0.007717525
0.16124457 0.045206737 0.18756533 0.8940617 0.44697627 0.029426439
-0.16146995 0.045096856 0.08110876 -0.862975 0.5048593 -0.019778267
-0.02388126 0.12093822 -0.06516335 -0.005776456 0.9832879 -0.18196587
-0.02649716 -0.063009284 -0.44538715 -0.038112592 -0.20882897 -0.9772092
-0.1342355 -0.1066735 -0.20600207 0.010436345 -0.9999361 0.004333219
-0.15027787 -0.10571254 -0.032060586 -0.0020599025 -0.9999835 0.005363376
0.14973636 -0.033834714 0.36783218 0.9047824 -0.06116007 0.42145962
0.024723565 -0.10522405 0.23719713 -0.00038141292 -0.9998511 0.01725512
-0.11465678 0.053077634 0.39893657 -0.5560107 0.5038401 0.6610576
0.13216345 0.09935451 -0.023330772 0.929366 0.36700428 -0.03983443
0.17159264 0.003972472 0.25504726 0.9895416 0.12699942 0.06839941
0.14030787 0.07803995 0.22734103 0.9310474 0.3515721 0.09771337
-0.15363416 -0.06091535 -0.32037964 -0.98680127 0.08902683 -0.13526808
-0.049235784 0.10655536 -0.0946037 -0.05448441 0.8062069 -0.58911955
-0.117143996 -0.10644053 -0.15711728 -0.015439976 -0.9998757 0.0031810622
-0.023075223 0.13293241 0.01432155 -0.0037062964 0.9995714 -0.02904028
-0.14013918 -0.10854547 -0.3933286 -0.10135534 -0.9823164 -0.15742154
0.029374426 -0.09328087 0.36283186 0.026838195 -0.98757327 0.15485081
-0.1349926 0.09447086 0.092356384 -0.85982406 0.51048034 0.010601254
0.17307793 -0.06318945 0.1512153 0.9982364 0.030692236 0.05081355
-0.11181282 0.06782612 0.3664552 -0.28981996 0.9484491 0.12825249
0.026010353 0.105676904 -0.09727201 0.028916001 0.9284856 -0.370241
0.12889381 -0.12906943 0.23430176 -0.0021206443 -0.9998457 -0.017438104
0.045980107 0.030188836 -0.3580826 0.0349172 0.9156998 -0.40034324
-0.020695906 0.035773348 -0.33412313 -0.021159425 0.99262995 -0.1193228
-0.043299124 -0.10581612 0.08979519 -0.0064313966 -0.9999715 0.0039519137
0.17139395 0.008676007 -0.28303406 0.8965383 0.44230464 0.024200078
0.10242976 -0.10843846 -0.32733744 -0.0700415 -0.99722785 -0.025114816
-0.012521759 0.07964114 0.34158435 -0.0016024822 0.90534717 0.4246693
-0.026693618 0.137028 0.10698437 -0.00663738 0.9999709 -0.003753553
-0.07911595 -0.10550054 0.11818972 -0.0031890667 -0.9999937 0.0015945333
0.09059502 -0.10557275 -0.040908124 0.0015487607 -0.9999959 0.0024261374
0.0588528 -0.105744526 -0.4309327 0.016957214 -0.9966887 -0.07952401
0.15463015 0.049506553 -0.06007137 0.8143066 0.5773781 -0.05949249
0.012264513 -0.031525955 -0.4460119 0.02843579 0.16104834 -0.9865368
0.1528201 0.05679 0.19489531 0.78770804 0.6160353 0.0040746005
0.11331441 0.12874734 0.13824621 0.22366805 0.971521 0.07822748
0.11508731 0.043145154 -0.23851246 0.06505279 0.99470365 -0.07957812
0.17376633 -0.047438234 0.10341672 0.9970365 0.07161521 0.028097082
0.06526082 -0.10514269 0.21347898 0.013509686 -0.9998541 0.010458373
-0.021049017 0.10911952 -0.09196795 -0.0024847835 0.89474046 -0.44657958
0.17496085 -0.006287565 -0.26044214 0.989348 0.118203655 0.084961705
-0.12799168 0.046704523 -0.19783856 -0.056787483 0.9932278 -0.101359665
0.036360174 -0.10654125 -0.02532523 0.023898017 -0.99947697 0.021785779
-0.10862969 -0.10831177 -0.40804586 -0.0147568155 -0.9985572 -0.051629808
0.17597091 -0.05126893 -0.18655969 0.9987389 0.036757786 0.034197543
0.092749186 0.027210781 -0.34466803 0.121760115 0.9800627 -0.15700804
0.06768729 -0.105938725 -0.08535852 0.039085984 -0.9992351 0.0012502637
0.17318687 0.004270423 0.0029735416 0.99965715 0.022773562 -0.012919763
0.17554125 -0.046717294 -0.056062613 0.9997158 0.023796946 0.0014034096
-0.040145513 -0.08978777 0.37823102 -0.01525152 -0.9935622 0.11225634
0.17505078 -0.027757905 -0.25857115 0.9900457 -0.13880219 -0.023309946
-0.10947865 0.033471145 0.41097462 -0.47879264 0.33801 0.8102511
-0.07926066 0.037153646 -0.30881947 -0.23093857 0.9277134 -0.29328355
0.15589789 -0.04655248 0.33919433 0.98159736 -0.023814999 0.18947153
-0.011427558 0.018910814 -0.40219077 -0.03596508 0.9719619 -0.23237151
-0.09348778 -0.108894385 -0.35681802 0.017183466 -0.9996766 0.018746987
-0.16999197 -0.115280814 -0.2615655 -0.79797894 -0.53771275 0.2722033
-0.012428049 0.045473155 -0.27505237 -0.014894673 0.9850023 -0.17189744
0.17421468 -0.04138061 0.077184044 0.9992194 0.026438087 0.029350242
0.08965391 0.07033682 -0.15445954 0.06633779 0.95298404 -0.29566994
0.030369889 0.13690442 0.08790427 0.0046995366 0.9999637 -0.0071103377
0.010152675 -0.10854192 -0.29627803 -0.0037762723 -0.9999264 -0.011527167
0.021545935 -0.10849552 -0.26436535 0.03944362 -0.999218 0.0027520577
-0.16415672 -0.048580907 0.26474094 -0.9961193 -0.05608643 -0.067828104
0.019724932 -0.06330027 -0.44471738 0.012268186 -0.190067 -0.98169446
0.1415871 0.033594184 0.37340713 0.9361866 0.21896163 0.2749734
0.10393991 0.03697801 -0.29122457 0.20858526 0.9466732 -0.24556468
0.013555881 0.0448756 -0.27738887 0.055622578 0.9825556 -0.17745614
-0.12273835 -0.10920126 -0.36976647 0.0040587815 -0.9999861 -0.0033721456
0.17485864 -0.06913521 0.11339064 0.9996215 -0.015298773 0.022864267
0.04391306 0.12591524 0.21219717 0.063908435 0.92172164 0.38255057
-0.078377664 0.059198495 -0.17813662 -0.101175725 0.9648796 -0.24242717
-0.17618428 -0.07062683 -0.047950804 -0.99522877 0.09755477 -0.0016780514
-0.09291997 -0.08633397 0.39581713 -0.006662888 -0.99466753 0.102918096
0.1328494 -0.105384074 0.10268856 0.003555261 -0.9999896 0.002853364
-0.034560606 0.009042841 -0.42366764 -0.014450281 0.8585799 -0.51247615
-0.053413652 -0.10295338 0.28532436 -0.0013678103 -0.99600905 0.08924202
0.13514309 -0.10516258 0.17943545 0.03889525 -0.9732871 -0.22627263
0.06169644 0.039044984 -0.30604133 0.035952978 0.99586403 -0.08343948
0.022553597 -0.10829242 -0.2918911 0.038225316 -0.99925584 -0.0051612565
0.060190804 0.1359136 0.057500474 0.074310854 0.99510336 -0.06517004
0.04663164 -0.10711215 -0.1413569 0.05269918 -0.9986102 0.00066283485
0.16411707 -0.07291755 0.24043874 0.9976977 0.065918446 -0.01593917
-0.15195367 0.05758643 0.17854425 -0.8115502 0.5834436 0.031301692
-0.18386647 0.059657812 -0.10130534 -0.9045494 -0.00091095374 0.42636776
0.16229051 -0.10538466 -0.022248372 0.0068205097 -0.9999752 0.0017547172
-0.14823894 -0.026070738 0.3761068 -0.9808971 -0.0052909413 0.19445519
-0.07778973 -0.10816915 -0.28712067 0.025359558 -0.9996776 0.001273698
0.032637566 -0.10580427 0.12053063 0.008163079 -0.9999542 0.004989396
-0.17739272 -0.09116735 -0.1372727 -0.9981546 0.05209637 -0.031199945
-0.06569062 -0.09864983 0.32985672 -0.014201664 -0.98332834 0.18128316
-0.14402679 0.025051694 -0.30779904 -0.45478573 0.859458 -0.23345618
0.1666431 0.039688677 0.04323798 0.892332 0.45103824 -0.01754986
-0.14231513 -0.1061641 -0.09091507 -0.02008396 -0.9997892 0.0042639324
-0.17067175 0.0022638133 -0.2909196 -0.88584125 0.46052286 -0.056602653
0.13605577 0.051308203 -0.17253974 0.19472808 0.9409201 -0.27703848
0.1679772 -0.0922306 0.21079996 0.9912353 0.102245346 0.083656654
0.1601969 0.04465146 0.22292103 0.9100238 0.41216016 0.044504188
0.17504361 -0.019666364 -0.08564918 0.99968684 0.022499666 0.01095238
0.09175065 -0.08031288 -0.4330362 0.3029745 0.0894989 -0.9487868
0.11199566 -0.117799945 0.22995113 -0.99600154 0.085776255 -0.024969948
-0.004710298 0.13075046 0.20193897 0.0018074579 0.95044035 0.31090173
-0.056714226 0.06993026 0.40626988 -0.065998286 0.98998934 0.12476077
0.15386446 0.0032242653 -0.3611237 0.6706649 0.65594333 -0.3463335
-0.05329502 -0.10685764 -0.3942081 0.012903674 -0.99782324 -0.06467062
-0.024884813 -0.108153194 -0.052589774 -3.051317e-05 -0.9998556 0.016995836
-0.15123098 0.05414313 0.25577372 -0.7592307 0.64977604 0.036874868
0.13978921 0.008462685 0.39207014 0.9388059 0.12204935 0.32209855
0.172511 -0.06317899 -0.3581937 0.95555085 0.0046511954 -0.29478955
-0.02699622 0.13590169 0.1671882 -0.01197715 0.9948473 0.10067485
-0.048263457 -0.107955314 -0.06972067 -0.025114726 -0.99964696 0.008671559
-0.06010775 -0.10556067 0.1345737 -0.00563801 -0.99998003 0.0028380782
0.17476703 -0.07493947 0.11250269 0.9995992 -0.017220268 0.022467189
0.027314465 -0.035729934 0.44771615 0.039771456 -0.111769155 0.992938
0.01754338 0.016109753 -0.40973854 0.011842512 0.9762401 -0.21636792
0.13462672 0.09401857 0.20356761 0.81986994 0.5694558 0.059442855
0.14108558 0.02053295 -0.3275952 0.43516207 0.83234996 -0.34326014
0.0659589 -0.10537976 0.16560407 0.019748632 -0.999804 -0.0013806497
0.14686593 -0.081700794 -0.39868107 0.7268072 0.01008103 -0.6867676
-0.120160945 0.06679852 0.35512397 -0.21521616 0.97473437 0.059790533
0.012675971 -0.105488636 0.20416564 0.014730538 -0.99987626 0.00551537
-0.12507924 -0.04503186 0.41138178 -0.75286365 -0.20636804 0.6249868
0.057817034 0.049542885 0.42479202 0.2309305 0.27127954 0.9343867
-0.03681374 0.0357448 -0.33248925 -0.026925512 0.9852543 -0.16896473
-0.14151621 0.072717786 0.21095715 -0.96066666 0.27311188 0.050293688
0.044927765 -0.10585938 0.08555926 0.009032763 -0.99995124 0.0039899787
0.14778489 -0.10592538 -0.1399594 0.012663749 -0.9999174 0.0021894553
-0.1742701 -0.04973361 -0.015664104 -0.9840496 0.17754215 0.011193984
-0.020133788 -0.10717731 -0.016538769 0.00020592632 -0.9996732 0.025565373
-0.058691118 0.024088426 -0.3756481 -0.049654666 0.9413272 -0.33382243
-0.019724594 -0.10804944 -0.15149607 -0.00089263025 -0.99999005 -0.0043715998
-0.17148437 -0.01613087 -0.13324384 -0.99916327 0.038930714 -0.012539852
-0.15530208 0.048901014 0.2595723 -0.7535796 0.65485424 0.05730383
0.16964248 0.031423625 0.085209236 0.94949174 0.31365755 0.009184401
-0.04799373 -0.10645687 -0.4025762 0.010374466 -0.99985445 -0.013547832
0.17360762 -0.0074817576 -0.23270814 0.9509931 0.27492258 0.14152624
0.015010092 -0.10488176 0.2529922 -0.0030647607 -0.9992645 0.038225647
-0.05668251 -0.101483755 0.31189477 0.003619869 -0.99887043 0.04737837
0.117122225 0.12797506 0.060986396 0.39920607 0.9150241 -0.058012772
0.14992234 -0.025183983 0.36803362 0.9242352 0.061822116 0.37678546
-0.0106144585 -0.02278101 -0.44421062 -0.002032543 0.24798504 -0.96876174
0.029654428 0.05013417 -0.23007016 0.010779213 0.99637026 -0.0844397
-0.049995065 -0.10661058 -0.17845047 -0.026309082 -0.9995316 -0.015632933
-0.17777422 -0.082945496 -0.09599118 -0.9508619 0.30794364 -0.03213018
-0.115517534 -0.121650204 0.20800683 0.14686742 -0.8243847 -0.54664415
-0.106081665 -0.1222522 -0.28073308 0.99679303 -0.057531275 0.05562244
0.1681699 -0.036992267 0.2978392 0.9897203 -0.022033721 0.14130878
0.14291371 0.07786217 -0.02872541 0.84970856 0.52684957 -0.020615183
-0.06548895 0.056807604 0.4207803 -0.29260886 0.51609194 0.80500257
-0.052717023 0.046082187 -0.26287815 -0.024662409 0.9934085 -0.11194339
-0.101886235 0.07469132 0.32696667 -0.13367121 0.9634088 0.23232596
0.17804317 -0.09274114 -0.0058314335 0.9838678 -0.17653674 0.02896306
-0.024206001 0.07251645 -0.1624433 -0.04652245 0.7657948 -0.64140004
-0.13212758 0.043397997 -0.21637888 -0.14238644 0.9807081 -0.13393155
-0.15198766 -0.1058545 -0.15465975 -0.024208572 -0.99970573 -0.0015483113
-0.11166601 -0.094627164 0.3452898 -0.043971058 -0.98451906 0.1696724
0.17240302 -0.087101795 0.14712407 0.998765 -0.034655634 0.03560051
0.040432487 0.07272601 0.39592615 0.062631555 0.9878752 0.1420553
-0.08974917 -0.10832092 -0.33010834 0.05589689 -0.99843514 0.0016834576
-0.08920808 -0.10164234 0.30369815 -0.012038957 -0.99808365 0.06069736
0.16485989 -0.014104819 0.30497822 0.93499357 0.09657244 0.3412635
-0.10174416 0.089853115 0.28896224 -0.085313976 0.9641554 0.25124887
0.11258562 -0.065832675 -0.4245798 0.5002351 -0.08650937 -0.8615573
0.036336172 -0.107130885 -0.06530268 0.048024867 -0.9988441 0.0020499348
0.17332964 -0.12483985 -0.31634977 0.20714642 -0.9542772 -0.21551178
0.043004196 0.13671428 0.07526876 0.008849411 0.99992245 -0.008757866
-0.020706184 0.036725506 -0.3299889 -0.037807796 0.9537228 -0.29830095
0.17156371 -0.09812391 -0.24163255 0.95615983 -0.03300222 -0.2909798
-0.06766114 0.07048463 0.39403003 -0.055154033 0.9935609 0.098967984
0.12369701 0.009544203 0.4100056 0.6014832 0.19333144 0.77513933
-0.11897471 -0.06641882 -0.42000163 -0.53320074 -0.14925268 -0.83271885
0.1654039 -0.08451987 0.24320367 0.9672649 0.25342727 -0.013165287
0.098446034 -0.10511517 0.18131305 -0.0025329029 -0.9999779 0.006149156
0.1663541 0.011929123 -0.2944951 0.6372352 0.75407344 -0.15907387
-0.1163216 0.06771261 0.35529363 -0.2753012 0.9538534 0.119886644
0.06180635 0.10324026 0.2756914 0.15915291 0.8701079 0.46645758
-0.09894451 0.035337113 -0.30314153 -0.11088298 0.9882806 -0.10491132
-0.09886641 0.030942969 -0.329088 -0.082602546 0.99329185 -0.08092018
-0.15455936 0.05489165 0.1163354 -0.8056589 0.5922731 0.011242489
-0.087037295 0.048295606 -0.21646413 -0.19459578 0.9408122 -0.2774978
-0.121894196 0.11315707 0.19608188 -0.75035423 0.63732177 0.17546926
-0.14662544 -0.105527446 0.029392239 -0.0033416548 -0.99999404 0.00086211646
-0.1037568 0.047212243 -0.21137607 -0.06441165 0.99044627 -0.12193177
-0.07173638 0.009064262 0.4324182 -0.2083955 0.37159446 0.90470374
-0.1617152 -0.10561775 -0.036042146 -0.016622001 -0.9998527 0.00427946
-0.13651365 0.053531405 0.3663904 -0.8592023 0.49418294 0.13249357
0.06857898 -0.10730659 -0.32741523 0.016888248 -0.99980867 -0.009870548
0.086013466 -0.10580952 -0.12780228 -0.004470725 -0.9999776 0.004981883
0.028116224 0.08662852 0.31456006 0.046098083 0.97203475 0.23026794
0.05687023 -0.10620979 -0.054042112 0.03984576 -0.99917036 0.008415864
0.08075485 0.12741421 0.19787557 0.1106669 0.9336594 0.34063613
-0.09786648 -0.104874894 0.18699183 -0.007154824 -0.9997837 0.019527026
0.17529155 -0.05941359 0.060663395 0.99937606 0.032465693 0.013907333
-0.16005102 0.04415119 0.22553785 -0.9655479 0.2571072 0.04016241
-0.15039408 0.054106805 -0.030532107 -0.7747362 0.6317971 -0.02482418
-0.1251099 0.11215456 0.15877813 -0.95733875 0.28884792 0.008326463
-0.15773736 0.024311515 -0.2678555 -0.696008 0.7140503 -0.07553114
0.025201088 -0.070413746 0.43698984 0.0806664 -0.49804226 0.86339265
0.15573324 -0.012451177 0.33940428 0.9839555 0.07095602 0.1636973
-0.048506204 -0.10687972 -0.23300157 -0.0224736 -0.99954516 0.020109562
0.16384456 0.03304389 0.24085954 0.9475768 0.31150198 0.07116658
-0.093018904 -0.10656417 -0.21327227 0.01650367 -0.99961597 0.02226165
0.034924522 -0.10731183 -0.107742086 0.035405733 -0.99928945 0.012922635
0.018804386 0.107267 0.27073085 0.058555692 0.79282916 0.6066244
-0.17373277 -0.076987505 -0.19715087 -0.9949126 0.10008418 0.011489614
0.022284422 -0.082243115 0.42207983 0.048321966 -0.96741354 0.24854776
0.123213686 -0.016292343 -0.40956247 0.4246933 0.52407444 -0.7382287
0.17568831 -0.051339876 -0.07201991 0.9996953 0.024421878 0.003584723
-0.029126024 0.019694725 -0.39618537 -0.03311832 0.9676515 -0.25010756
0.16418871 -0.12217237 0.25808328 0.31038666 -0.833856 0.4564476
0.17570724 -0.047465205 -0.17611088 0.99971557 0.023827448 0.0010220481
-0.16362031 0.040548936 0.18404713 -0.9818869 0.18746734 0.027462749
0.1709435 0.018215908 -0.10318536 0.96819025 0.24959677 0.017580358
-0.15118733 0.050598413 -0.07254905 -0.8572683 0.5142805 -0.024631288
0.14993674 -0.0128209675 -0.382831 0.73259556 0.37830153 -0.5658547
-0.13618162 0.0907626 0.13995342 -0.94115925 0.3376116 0.01541648
-0.042686965 -0.10567816 0.12694553 -0.005065818 -0.9999803 0.0037154418
-0.1719471 -0.02272475 -0.01975652 -0.9992857 0.037769023 0.0012884467
0.0073197726 0.13372727 0.18095116 0.052823093 0.9845888 0.16671726
-0.13466047 -0.077099904 0.38942257 -0.7808325 -0.37332058 0.5009315
-0.15268508 0.021360397 0.34322542 -0.9934347 0.035630316 0.10870998
0.11658044 0.12859692 0.10656896 0.38283527 0.9238003 0.0054974686
-0.17184058 -0.014263261 0.029874414 -0.9999472 0.009620159 -0.003623771
0.15566696 -0.04318287 0.34133792 0.9878382 -0.047510773 0.14804912
-0.13183613 0.03351101 -0.28665155 -0.36592776 0.8831612 -0.29346746
-0.06404711 -0.10576479 0.03138854 -0.014394799 -0.9998702 0.0072317272
0.07326909 -0.1058187 -0.12181569 0.012602636 -0.9999108 0.0044170255
0.16324869 0.009659655 -0.3160057 0.70619553 0.6865032 -0.17320843
-0.09874168 -0.10558312 0.06278054 0.0064161886 -0.9999794 -0.00024413559
-0.017120017 -0.105896145 0.1261983 -0.0070569133 -0.9999608 0.005347996
-0.05077206 -0.009937618 0.4451033 -0.17207596 0.09540327 0.98045295
0.108066484 0.12450151 -0.019255584 0.1295575 0.98614174 -0.10363095
-0.118392624 0.10693856 0.23602815 -0.60460687 0.74739504 0.27541086
0.04692429 0.11857497 -0.069068246 0.1328372 0.90471447 -0.4047789
-0.04689232 -0.10590619 0.052120067 -0.013273829 -0.9999007 0.0047373837
-0.07635002 0.013099254 0.42956176 -0.24855594 0.29452747 0.9227532
0.07567951 -0.10559795 -0.03436793 0.008750563 -0.99995965 0.0020369662
0.15073879 -0.05145022 -0.3942892 0.79518664 -0.05135069 -0.60418653
0.15439947 -0.062188167 0.34230337 0.9390298 -0.07734501 0.33502355
-0.031083053 -0.105975196 -0.4340551 -0.0042582555 -0.99136424 -0.13106804
-0.061131015 0.13303305 0.03487134 -0.01827972 0.9991491 -0.036971077
-0.072718985 -0.10621683 -0.17229642 0.00023650884 -0.9999899 -0.004493668
0.17315714 0.0024674598 -0.010846232 0.9999573 -0.007064518 0.005950674
0.087482326 -0.10547379 0.082630366 -0.0026473738 -0.99999017 0.0035476335
0.09322131 -0.10790188 -0.32249412 -0.034492437 -0.998673 -0.03824112
-0.1367723 0.080057554 -0.089975156 -0.93838274 0.34554324 0.0061426726
0.16674499 -0.06504898 0.27144527 0.9608904 0.012653327 -0.27663973
0.1727506 0.006552932 -0.097185366 0.9883952 0.15190303 -0.0005731051
0.16948856 -0.10544844 -0.19042271 0.068841234 -0.9975852 0.009201664
0.16803674 -0.12393427 0.23312634 0.87149334 -0.48937723 -0.03176876
-0.04320996 0.054220155 0.42726144 -0.14593026 0.4534272 0.8792657
0.12587245 0.1185929 0.07140038 0.8217127 0.5695762 -0.019268041
0.04340826 -0.060403258 0.44068748 0.10052723 -0.36201963 0.9267341
0.10672463 -0.0030451855 0.42579836 0.37576434 0.20953545 0.902716
-0.14407687 -0.10035198 0.29334497 0.051184524 -0.9950842 0.08477864
0.1750581 -0.04569411 0.04161874 0.99972934 0.019983603 0.011913888
0.050029002 -0.10613863 -0.42622164 0.0015792819 -0.9999982 -0.0010452252
-0.16968936 -0.10539275 -0.034450833 -0.03227068 -0.999476 0.00250113
0.052764907 -0.10619196 -0.03597474 0.035719607 -0.9993256 0.0085162865
0.17252636 0.015506943 0.013979875 0.99633837 0.0854404 -0.0031318008
-0.075765945 0.03943489 -0.29486305 -0.057380117 0.9864804 -0.15350536
0.17375748 -0.021042705 0.0054637943 0.9924382 0.12263129 0.0053001917
0.13409336 0.10097116 0.09741513 0.88421214 0.46651658 0.023047812
-0.0021504737 0.050298244 -0.23283388 -0.008308169 0.99722385 -0.07399749
0.17569764 -0.04127244 -0.22636189 0.9992104 -0.0043758145 -0.039489057
-0.14239593 0.06711498 -0.123116545 -0.70792466 0.68067616 -0.18847457
0.0072842874 -0.09808649 -0.44542533 0.030971883 -0.102450706 -0.99425584
0.17819339 -0.075240634 -0.118589774 0.9877602 0.1555133 -0.01205762
-0.171848 -0.0035121432 0.22158107 -0.9999864 -0.0037917576 0.0035781374
0.0054849694 0.067980684 0.4197444 0.026568595 0.8006402 0.59855604
0.036932647 -0.10621362 0.007947792 0.016225332 -0.9998527 0.0055991504
-0.16378906 -0.105766505 -0.22366463 -0.15690055 -0.9874331 -0.018924193
0.06312258 -0.107306935 -0.24910723 0.052662615 -0.9983504 0.022873277
0.022485316 -0.106425606 -0.39974886 0.008375321 -0.99979055 -0.018672846
0.1571861 -0.12877025 0.23204371 0.046408933 -0.99834424 -0.03398599
0.09187413 -0.036271434 0.4332028 0.38666132 -0.090619154 0.91775876
-0.017853772 -0.1076737 -0.17167328 -0.0051715616 -0.9997742 -0.02060997
-0.08600671 0.025037726 0.42399886 -0.34469074 0.31678003 0.8836507
0.17232941 0.017808542 0.015472047 0.9950106 0.09973487 -0.0026114169
0.181709 -0.11000472 -0.30975994 0.9050627 0.24252889 0.34934404
0.09183744 -0.10576808 -0.104107276 -0.003120406 -0.99999475 0.0008773758
0.1659975 -0.032433063 0.24863584 0.9302757 -0.3069239 -0.20095994
0.17565201 -0.058646612 0.004938822 0.99992436 0.012282397 0.0006103054
0.054336715 0.043044563 -0.2817669 0.029825332 0.9982804 -0.05046544
0.12745047 0.110284224 -0.010883033 0.87000847 0.48631808 -0.08111685
-0.17261869 -0.037192985 0.07200114 -0.9894834 0.14464189 -0.001139923
-0.17218547 -0.041332234 -0.12783158 -0.9991536 0.04082845 -0.0050082696
-0.061689373 0.050864626 -0.21247856 -0.025582198 0.9949881 -0.09666579
0.14436148 -0.10773003 -0.23038404 -0.030614207 -0.9971832 0.06847114
-0.13749444 -0.10532683 0.14292905 -0.007521985 -0.9999205 0.0101157725
-0.15823634 0.050471865 0.15735486 -0.73398226 0.67913646 0.0066114664
-0.11829653 0.04828398 0.39900205 -0.5643204 0.27936992 0.7768494
-0.17307071 -0.06757271 0.13512546 -0.9972689 -0.012538904 0.07278347
-0.17231677 -0.058626335 -0.20339157 -0.99886197 0.046463482 -0.010768066
-0.16673398 0.037729558 0.09968431 -0.7983451 0.60209936 0.011024768
-0.16646993 0.012979577 -0.1847436 -0.9623605 0.27110443 -0.019097134
0.08394199 0.11240841 -0.077178955 0.04083614 0.8591452 -0.5100999
-0.023523249 -0.10702183 -0.22694264 0.004951318 -0.9999678 0.0063093062
0.012564855 -0.101370744 0.30931458 0.0038252142 -0.99876195 0.049598247
0.059868716 -0.06374517 0.4372088 0.089527175 -0.28500745 0.9543352
-0.07592549 -0.0056466637 0.43692154 -0.22830176 0.19949687 0.95293194
0.1739041 -0.039784096 0.086665 0.9989598 0.022324575 0.03976247
-0.17240402 -0.044277303 -0.22981916 -0.9967116 0.046256997 0.06653008
-0.082803 0.124781616 -0.033975028 -0.034705166 0.9962496 -0.079260945
-0.11607815 0.04128581 0.40378687 -0.54061145 0.38049608 0.7503079
0.11464731 -0.10551801 0.08891436 0.00077056454 -0.9999944 0.0032653625
0.15289456 0.059002418 0.1267434 0.85010874 0.52605885 0.024024874
0.07498798 -0.10576528 -0.08992323 0.012404425 -0.99992174 0.0016020475
0.025076166 0.019739816 -0.3963812 0.013133648 0.9479369 -0.3181872
-0.17181687 0.010117987 0.011016189 -0.9999124 0.010489498 -0.008071193
0.037183277 0.008400008 -0.42493317 0.02259784 0.93084353 -0.36471862
0.13168477 0.044480216 -0.21619691 0.2914416 0.9351244 -0.20150492
-0.16004393 0.020677097 -0.27758723 -0.80572367 0.5830777 -0.10406568
0.17346057 -0.094982184 0.11905905 0.9915594 -0.120895475 0.046842463
-0.074929506 0.1326262 0.025781555 -0.01876046 0.9995817 -0.022009222
0.17184097 -0.08076682 0.17346814 0.99940443 -0.011483025 0.032542862
-0.10075766 -0.1059363 -0.057922337 -0.003135522 -0.9999492 0.009582033
-0.16938736 0.0033861406 -0.29693598 -0.8987957 0.4180979 -0.131759
0.13541341 -0.10532787 0.114228524 0.002586318 -0.99998194 0.0054244017
0.17613518 -0.05937866 -0.16978244 0.99911875 0.03950068 0.014193413
0.17606133 -0.059675466 -0.15557094 0.9997158 0.023766438 0.0018457888
-0.045188665 -0.07754042 -0.4433242 -0.11885496 -0.10320626 -0.9875333
-0.034679327 -0.08556001 0.40156484 -0.017217265 -0.9858897 0.16650878
0.025339907 -0.10768124 -0.34673616 -0.005958393 -0.99997246 -0.004417298
0.036204334 0.118088774 0.24133922 0.08251645 0.9617282 0.26128495
-0.08407308 0.0066769887 -0.41685572 -0.23262392 0.8053908 -0.54518974
0.074573435 -0.10745661 -0.34632376 -0.010714835 -0.9997855 0.017724743
0.08568245 0.008068728 0.4301781 0.23588842 0.33980158 0.91043484
0.18837892 0.05567918 -0.09613957 0.6884982 -0.1076829 0.7171992
-0.13351242 -0.06491869 -0.41015798 -0.63751346 -0.053978916 -0.768546
0.17176498 0.0026627309 -0.1669598 0.99705356 0.07670813 1.521383e-05
-0.00040818797 0.0775722 0.35077804 0.00026858697 0.97789526 0.20909494
-0.1357801 -0.13166583 -0.29237393 0.004794222 -0.995861 0.09076351
0.0108006345 -0.08300298 0.42079794 0.00087132206 -0.9678468 0.25153887
0.17591177 -0.063967295 -0.042358432 0.99931747 0.036138646 0.0076546837
0.13469972 -0.108079165 -0.3527796 -0.043528713 -0.99674976 -0.06778738
0.050285183 -0.106849805 -0.18514927 0.037060913 -0.9993104 -0.002294864
0.17858392 -0.0073705898 -0.29325145 0.9793041 0.18974614 0.07042634
-0.11790693 0.028540926 -0.325081 -0.27861777 0.9239232 -0.26217955
-0.05343844 -0.1080652 -0.3480396 0.017948328 -0.99979734 0.009122906
0.05902606 -0.043017205 0.44320756 0.278431 -0.17935108 0.9435621
0.029479368 -0.021701094 -0.4435381 0.025038296 0.2169539 -0.9758607
0.04825941 -0.10549657 0.1959831 0.003959412 -0.9999385 0.010360081
-0.03774841 -0.08680257 0.39263582 -0.021076838 -0.9859326 0.16580896
-0.12561408 -0.12800668 0.2529078 -0.033660002 -0.9325478 0.359474
0.10471824 -0.10558586 -0.048036914 0.0018005167 -0.9999887 0.004402111
0.15447988 -0.106113 -0.38153073 0.3054616 -0.926 -0.22184946
0.012653459 0.049552366 -0.23914242 0.06106721 0.9889055 -0.13541317
-0.026954612 -0.10759203 -0.35040498 0.015271367 -0.99982446 0.010854723
0.16662449 -0.08982525 0.23542844 0.97934246 0.2021717 0.003870387
-0.019534322 0.09885167 -0.110951334 -0.007077209 0.7982995 -0.60221916
0.16965461 0.015095374 -0.15297888 0.9189703 0.3917609 -0.044911187
-0.06773664 -0.10490553 0.23862636 -0.027787462 -0.99949455 0.015441716
-0.036343932 0.047298312 0.43077075 -0.110843055 0.41856587 0.901397
-0.073955186 -0.10531211 0.17678364 -0.005645637 -0.9999796 0.0029830325
0.13384247 0.09893197 0.13973054 0.8291864 0.5583625 0.02610186
-0.07425252 -0.10561158 0.04862279 -0.008338612 -0.99996203 0.002540492
0.16736726 0.029635994 -0.062592745 0.84254605 0.53728384 -0.037977308
0.17237894 0.01718231 -0.017988037 0.99427557 0.10682212 -0.0022605448
-0.14318076 0.06388455 0.26259035 -0.8119834 0.56294054 0.15421069
-0.11667482 0.046996884 -0.20330109 -0.053756706 0.99463564 -0.0883753
-0.036366098 0.00026048473 -0.43561658 -0.047271706 0.44460368 -0.89447916
-0.00042361126 0.06601428 -0.17524773 0.0043356027 0.9165744 -0.3998405
-0.1085877 -0.03971302 -0.42665088 -0.4077263 0.14276199 -0.9018749
0.051604252 -0.10662731 -0.20159945 0.021531673 -0.99971646 -0.0101671
0.1311812 -0.08958347 0.3619899 0.19893445 -0.9697176 0.14167856
-0.14042827 -0.0675312 0.3823537 -0.9100169 -0.13773282 0.3910229
0.009263083 -0.107179366 -0.016216327 0.013213655 -0.99938846 0.032374598
0.083892904 0.10942707 -0.08274205 0.066159576 0.92745113 -0.36804536
0.11540251 -0.09835376 0.31523004 0.05425058 -0.99409086 0.094022706
-0.03741404 0.05681734 -0.19253752 -0.024477206 0.8996849 -0.43585315
-0.08501058 0.019971209 -0.37816334 -0.085363254 0.9807795 -0.17545561
-0.07467571 -0.106126346 -0.0434873 -0.041455217 -0.99901056 0.016104959
-0.15699133 -0.056481943 -0.29571322 -0.96372724 0.10095931 -0.24705657
-0.15742323 0.04132836 -0.07952248 -0.82266563 0.56686306 -0.043445524
0.17309038 0.008570447 0.01200226 0.9988112 0.048510984 -0.004785564
0.119105086 0.0764061 0.31240955 0.37875098 0.83952683 0.38954127
-0.17096172 0.017671458 -0.020784287 -0.9611519 0.27500242 -0.02367828
-0.14196104 -0.105562925 0.0820988 -0.003158553 -0.9999949 -0.00046539068
0.09792073 0.12863041 0.0016183029 0.055681717 0.9970375 -0.053064983
-0.07327749 -0.016709886 -0.4371139 -0.3081018 0.41382188 -0.8566357
-0.01990942 0.096369036 -0.116473205 -0.007901109 0.8273624 -0.56161284
-0.15615946 0.016555997 0.3300508 -0.99738044 0.029524507 0.06603445
-0.05754183 -0.10646897 -0.17428176 -0.024991557 -0.99960124 -0.013140205
0.15548912 -0.06676728 0.33741972 0.97531545 -0.080140285 0.20576036
0.07682241 -0.10569064 -0.065687075 0.006103384 -0.9999784 0.0024337242
0.059482783 0.13614835 0.060716573 0.05050869 0.99763036 -0.046718255
0.09045788 0.04399875 -0.24794252 0.16500239 0.9638646 -0.20913932
0.012766732 0.08058369 -0.14620532 0.07670992 0.91872466 -0.38737667
-0.1158459 -0.0006643883 -0.40277708 -0.4632939 0.6267351 -0.6265476
0.16320795 -0.12784863 0.24277785 0.33705288 -0.9361176 0.10039524
-0.16103041 0.02230063 -0.22965519 -0.92629874 0.36577183 -0.09045179
-0.038916156 -0.106432736 -0.39923888 0.008623428 -0.9993722 -0.034364093
0.1263975 0.116841406 0.03988664 0.8731208 0.48705295 -0.020965217
-0.061914846 0.1360226 0.06803655 -0.10870393 0.99027264 -0.08685435
-0.036795117 -0.10631198 -0.43129203 0.003646011 -0.99768263 -0.06794216
-0.0048231944 0.1369619 0.08909404 -0.00097654463 0.9999817 -0.0059660776
-0.07057999 -0.04978653 0.43752885 -0.21549048 -0.18969242 0.95790434
0.06609434 -0.1055058 0.121596634 0.011527132 -0.9999234 0.004500998
-0.03870335 -0.10778219 -0.15711366 -0.02475925 -0.9994593 -0.02163289
-0.001973985 0.01952247 -0.39973038 0.00043739277 0.9884473 -0.15156414
0.17278275 -1.9947067e-05 -0.31687778 0.7404566 0.6385717 -0.20964313
-0.17331523 -0.07431884 0.11863262 -0.9647341 -0.2525479 0.07421428
0.17242992 -0.10516735 -0.17887555 0.08793015 -0.9961263 0.00084358227
0.12333087 0.012652264 -0.3739962 0.26846036 0.91117185 -0.31256187
0.066822566 -0.106239565 -0.42110607 -0.014329453 -0.999569 -0.025623716
-0.16660984 0.011539862 0.28052542 -0.9563541 0.25787675 0.13742775
0.1771029 -0.12303728 -0.31567618 0.6335465 -0.6964898 -0.33692855
-0.022016533 0.11830728 0.24466716 -0.054393988 0.949844 0.30795723
0.15708345 0.025750132 0.30549437 0.91923726 0.3160439 0.23477466
-0.17208476 -0.06830632 0.16132878 -0.9999001 0.004897582 0.013258563
-0.021029847 0.044224713 -0.2809108 -0.028310388 0.9937598 -0.10788881
-0.15246868 0.017196678 0.34699383 -0.9970603 0.028777154 0.07101103
0.1510044 -0.10524062 0.121685915 0.005432007 -0.9999775 0.003921421
0.12543684 0.104324445 0.22291097 0.77809566 0.6016778 0.18041903
-0.079582326 0.042927243 -0.26898748 -0.03764476 0.9984164 -0.041803814
0.113023765 -0.10526864 0.15704426 -0.0029982463 -0.9999648 0.007842741
0.10148815 -0.0904186 0.3648146 0.019134445 -0.9866208 0.16190511
0.11355312 0.0689861 -0.14958109 0.21996097 0.8669688 -0.44719368
-0.090514116 -0.009006464 0.43255025 -0.31232634 0.13785557 0.9399192
0.15058213 0.017468 -0.32693613 0.51724076 0.80600464 -0.287782
-0.0011497883 -0.10589577 -0.4344278 -0.0031499667 -0.99487334 -0.10107978
0.10932292 0.022893833 -0.35105944 0.08577779 0.9862339 -0.14136782
-0.12266081 -0.10622119 -0.086028285 0.008574883 -0.99993515 0.0074915797
-0.04661359 -0.10710754 -0.23946998 -0.023040725 -0.9990056 0.038170014
-0.081781186 -0.10567978 0.008881022 -0.009307382 -0.9999485 0.004043371
-0.0871903 0.062082075 0.40715337 -0.25773793 0.8320336 0.49121416
-0.013548409 -0.1062829 0.061290406 -0.020427076 -0.99978256 0.004179999
-0.12704983 0.016405925 -0.3608184 -0.32939187 0.8527471 -0.40536827
-0.1428657 -0.10675291 -0.20803304 -0.00046532563 -0.9998551 0.017018713
0.16958812 -0.10033743 0.18735155 0.93467844 -0.35506827 -0.017399715
0.17394738 -0.10918005 -0.28498253 0.89520746 0.19278525 0.4017928
-0.16632497 0.011010746 -0.2601658 -0.8340642 0.5514568 0.015240354
0.151562 0.020002164 0.3447252 0.97656876 0.13819426 0.16497181
0.018932132 0.04805422 -0.2462492 0.017401207 0.99165696 -0.12772486
-0.07469152 -0.10480674 0.23540814 -0.021315597 -0.9995985 0.018669259
-0.10784184 -0.0949491 0.3441868 -0.0524737 -0.97891164 0.19742988
-0.17177726 0.0104711475 0.110597745 -0.99998343 0.0024032195 0.005241307
0.1004967 -0.105525695 -0.019853663 0.002517691 -0.99999636 0.0009918177
0.17199676 -0.02465852 0.12738098 0.999737 0.014751368 0.017558247
0.1670478 0.0031302723 0.28754008 0.95769024 0.23026009 0.17265488
-0.1461133 -0.10547566 0.1122195 -0.0026702553 -0.9999877 0.004165598
0.032878194 0.051416952 -0.21273449 0.017805602 0.9872318 -0.1582921
0.059905175 -0.105648726 0.102024175 0.010260976 -0.99994546 0.0019606475
0.030974805 -0.10711734 -0.3865234 -0.00073780067 -0.9969589 -0.07792544
-0.16967703 -0.0069718244 -0.1500597 -0.9703279 0.20214681 -0.1326663
0.011110944 -0.05992469 0.44399226 0.0051106606 -0.30756885 0.9515121
-0.028611753 -0.051820084 0.44504556 -0.110679805 -0.13340186 0.9848624
0.12088284 -0.10653248 -0.18075986 -0.055256806 -0.9982936 0.018880995
-0.06161123 -0.107826196 -0.31855336 0.017216662 -0.99983263 -0.0061940313
0.008442207 -0.103008084 0.28270718 0.013892593 -0.9961323 0.086760305
-0.1674047 0.027643232 0.2096346 -0.97394 0.22639468 0.013649962
-0.13175303 -0.10629509 -0.15503207 -0.004310565 -0.9999901 0.0011138805
-0.042921957 -0.10555836 0.18373683 -0.0059963553 -0.9999418 0.008964017
-0.06583608 0.04178256 -0.28855285 -0.105591856 0.9617884 -0.25261328
-0.0020785176 0.09040483 0.30920103 -0.001430157 0.87416273 0.48563093
0.16313757 0.04498015 0.11561919 0.80723774 0.59021616 0.0034858442
-0.028664576 -0.10539937 0.22581162 -0.0005493052 -0.99997956 0.006362785
0.0035357052 0.09242075 0.30537042 -0.001376086 0.9109412 0.41253394
-0.06533872 0.046841018 -0.2448826 -0.029768918 0.9984318 -0.047410887
0.013783355 -0.1054135 -0.43832624 0.0010888038 -0.9910534 -0.13346164
0.0023779324 -0.10565843 0.19248317 0.0024031324 -0.9999472 0.009993979
-0.11770172 0.069480576 0.33846298 -0.19744617 0.9703661 0.1393006
-0.17093222 -0.015759345 -0.22511949 -0.99433506 0.092649944 0.05209426
-0.09855476 -0.09856879 0.32506493 -0.034370694 -0.99295473 0.1133998
0.1304956 -0.0950765 0.33327878 0.038738433 -0.9524524 0.30221468
0.086847484 0.04623533 -0.2406615 0.04562377 0.9960025 -0.076794446
0.17146836 -0.10430841 -0.23601347 0.64086205 -0.7666682 -0.03893237
-0.16327325 0.017815601 -0.23853098 -0.8284075 0.5580614 -0.048046526
-0.05575225 0.032464672 -0.3428711 -0.06530513 0.9608973 -0.26909408
0.15838371 0.052157648 0.06995288 0.82158464 0.56981087 -0.017728338
0.106137104 -0.10700964 -0.24029389 -0.057522517 -0.9917905 0.11420512
-0.021448895 -0.10818624 -0.0546152 0.0015638178 -0.99986696 0.016233193
-0.048615795 -0.105443224 0.19962269 -0.005012436 -0.99998474 0.002304042
-0.11863418 0.12508212 0.12689793 -0.6679586 0.74341965 0.034036987
0.119585484 0.12479408 0.020867262 0.6679521 0.74340326 -0.03451807
0.035303164 0.054484386 0.42698523 0.13186786 0.47676432 0.8690838
0.09201817 -0.09662348 0.33953783 0.09621817 -0.96810526 0.2313313
0.113259435 0.0028541773 -0.40212193 0.37800896 0.75493515 -0.5358938
