ply
format ascii 1.0
element vertex 685
property float x
property float y
property float z
property float nx
property float ny
property float nz
end_header
0.18211845 -0.092407495 -0.21712336 0.9932552 0.055167373 -0.10198386
-0.18112 -0.019135825 0.14845118 -0.99131066 -0.12638697 -0.036461707
0.10969215 -0.14356792 0.23519513 -0.9987877 0.023531009 0.043236706
-0.18326043 -0.11317667 -0.034644503 -0.99967885 -0.02478757 0.005285472
-0.014233448 -0.015686132 0.39187658 -0.029080078 0.10398745 0.9941534
-0.019879539 -0.00381746 0.39148185 -0.03294248 0.041993283 0.9985747
-0.007566905 0.15340345 0.25544852 -0.01644298 0.9922718 0.12298925
-0.13267937 -0.17616297 -0.21119271 0.079830095 -0.7065679 0.70312804
-0.053718608 0.06257158 -0.25831813 -0.00054736965 0.9964561 -0.08411247
0.15718049 0.13423206 0.12787884 0.9415482 0.33673608 -0.009783849
-0.06380071 0.15492375 -0.025677023 0.049082994 0.99127984 -0.12229153
-0.16518034 -0.19090384 0.3000066 0.027866187 -0.9034076 0.42787656
-0.11012513 0.15523346 0.3245138 -0.061585482 0.99557626 0.07095851
-0.09224619 0.15394665 0.30897126 -0.054758813 0.96181947 -0.26815075
0.18236378 -0.01047584 -0.28564993 0.99882674 0.03697439 0.0312743
0.0011695953 -0.068382055 0.4062161 -0.008360709 -0.08632812 0.9962317
0.0394184 0.1570251 0.32640556 0.008049025 0.96259296 0.2708321
0.18017179 -0.10147192 -0.17854609 0.97407323 0.015769832 0.2256825
-0.17510384 -0.084932454 -0.005972559 -0.9987706 0.046200152 -0.017967995
0.03802268 0.04836158 0.3855159 0.019252375 0.15300888 0.9880373
-0.10221159 0.15475859 -0.08472977 -0.06497991 0.99196917 0.10851176
-0.011899497 0.008528619 -0.41383904 -0.010287817 0.026783403 -0.9995883
0.035330757 0.15351637 0.33659357 0.0031779283 0.92563874 0.3783951
-0.11495368 0.1569234 0.0037869364 0.056433126 0.99794966 -0.03019614
-0.13027783 0.11784423 0.3722011 0.10779204 0.22786944 0.9677068
0.085127406 0.036671292 0.38624534 0.014489505 0.10535615 0.99432904
0.067102954 0.1420509 0.35433733 0.02330523 0.89474607 0.44596678
0.108549215 -0.15185672 0.19890308 -0.9996724 -0.01090646 0.023155253
-0.1371041 0.15365182 -0.034101795 0.036323525 0.9898123 -0.13766693
-0.15722418 -0.11861127 -0.085021414 0.04046334 -0.99917305 0.003994497
0.17173605 -0.19974211 -0.27237475 0.09529229 -0.9941222 0.051385332
0.15583256 0.14310655 0.02109224 0.92937195 0.3688076 0.015769374
0.18280983 0.013276165 0.15335578 0.9997182 -0.023461403 -0.003615314
-0.11060186 -0.13356417 -0.32540673 0.9996849 0.015421775 0.019807294
0.17731026 -0.09425875 0.1508211 0.9196493 0.12788032 -0.37133786
0.026903326 0.15522727 0.29856393 -0.0013435675 0.978356 -0.20692432
-0.011393228 0.16036691 -0.14707905 0.0012440273 0.9591597 -0.28286254
-0.17981072 0.011360477 0.33722362 -0.9999881 0.0011367663 0.004745427
0.18206349 -0.010785079 -0.24861768 0.995621 0.07705368 -0.052928828
0.028520653 0.04051439 -0.36778757 -0.0056066336 0.9349525 -0.35472882
0.18258812 0.010460849 0.16106638 0.99915814 -0.024484985 0.03291599
-0.179808 -0.06869327 -0.27916026 -0.99856323 -0.053146187 0.0068489714
-0.16692066 0.099976026 0.2043697 -0.9339931 0.35687026 -0.017337075
-0.108534254 -0.118171684 -0.34509215 0.9896557 -0.10782076 0.09463763
-0.106615335 0.0070719123 -0.07051862 0.24459076 0.14226876 0.9591324
0.1788895 0.048825253 -0.069079936 0.9934868 0.10878389 -0.03391159
0.062361583 0.07272704 0.38168043 0.01582286 0.23878804 0.9709428
0.182807 -0.12087831 0.016182125 0.75397897 -0.65673727 0.0145535795
0.036686737 0.14830764 -0.060113534 -0.19303693 0.9798519 -0.05125324
0.15799984 0.1300403 -0.029114783 0.95876044 0.27426758 -0.07453742
0.17781551 -0.08861503 0.27556434 0.9845799 -0.090625584 -0.14963096
0.15946038 0.13034132 0.2651334 0.9843994 0.17521696 -0.016027132
-0.009549766 -0.11754689 0.008892584 -0.0010070782 -0.99999815 -0.0016021699
0.11637557 -0.11921334 0.11433065 -0.18269227 -0.9830155 0.01743683
0.077669956 0.10464193 -0.1848454 0.11860516 0.5398276 -0.8333781
-0.0015467188 0.15556166 0.034881648 -0.01844173 0.9996668 -0.018060386
0.08917702 0.08969295 -0.08493337 -0.029317599 -0.6643082 0.74688363
0.18034483 -0.07389617 0.29391974 0.9972619 -0.024940677 -0.069617815
0.17896722 -0.15054455 -0.28192723 0.9688132 0.24761383 -0.009401934
0.0015231486 0.04270194 -0.026810765 -0.03123618 -0.037020095 -0.9988262
0.13089903 0.15678762 0.32230526 0.027477201 0.9686637 0.24685138
0.06475564 -0.11683409 0.004384 0.014844944 -0.99987483 -0.0054695914
-0.16664487 0.09520064 0.14713868 -0.97538066 0.2177476 -0.034908377
-0.108006224 -0.022380395 -0.04977777 0.4785786 0.8778524 0.01837789
0.05515439 0.15343575 -0.04467603 -0.11234146 0.97787356 -0.17647263
-0.038358126 -0.11741614 0.08079963 -0.008535681 -0.9998113 -0.01745276
0.16701293 0.095293835 0.0338874 0.97549593 0.21903111 0.020809071
-0.012575664 0.10894296 0.26307577 -0.04023078 0.09613806 0.9945547
-0.037751492 0.015869068 -0.07514932 0.05601974 0.3313471 0.9418444
0.18501015 -0.13412686 -0.20997919 0.99791986 0.04085417 -0.049868584
0.075181745 -0.116568446 -0.15157856 0.031074649 -0.9995132 -0.0027833735
0.18134488 -0.03770905 0.3618204 0.9938614 0.06624125 0.0886098
-0.066912964 0.15668194 0.12799786 -0.034217212 0.99931335 0.0142114265
-0.0020845055 0.14978522 -0.16279617 0.0037066631 0.74744576 -0.6643125
-0.017892364 -0.11661144 0.16971941 -0.03898968 -0.9717543 -0.23275188
-0.02062277 -0.11736557 -0.21700472 0.0025099036 -0.9999334 -0.011260237
0.18272407 0.0103811845 0.15227702 0.99935174 -0.033364587 -0.013525772
-0.17994243 0.008460813 -0.12866496 -0.9999638 -0.008483579 0.0006179586
-0.17551522 -0.070871755 -0.12889278 -0.99834156 -0.055289928 0.016033242
-0.17956355 0.008802495 -0.17033733 -0.9999988 0.0010757433 -0.0010757433
0.10018877 -0.11669121 0.34723622 0.013245196 -0.99147594 -0.12961532
-0.076548755 0.15123226 0.25108856 -0.0735575 0.98824614 0.13401099
0.17968528 -0.01798097 -0.0557422 0.9998987 -0.013609461 -0.0041652275
-0.18278112 0.006490303 0.17798512 -0.9999306 -0.010894019 -0.004470515
-0.17372726 0.057374936 0.3738074 -0.9187509 0.15027899 0.36512056
0.11871838 -0.18800153 0.30710652 -0.21922462 -0.88543725 0.40980655
0.17695718 0.061615065 0.31565982 0.94173884 0.33628193 0.006509517
0.00089412683 -0.079884924 -0.40762073 0.006419958 -0.36537805 -0.9308371
-0.010228583 0.10217849 -0.05872636 0.093738 -0.98908603 -0.113674864
-0.1796362 -0.11285828 -0.17810056 -0.87056214 -0.43702787 0.22611554
0.105038814 -0.064852476 0.4065485 -0.0051572686 0.007201866 0.9999608
0.12561506 0.015218552 -0.39980024 0.2700178 0.009541989 -0.962808
-0.0050625973 0.08718693 -0.19892994 0.0015782882 0.42043382 -0.9073219
-0.17814426 -0.039218046 -0.13707604 -0.9919035 -0.12671228 0.008460603
-0.0863289 -0.11468586 0.20856117 -0.13545695 -0.98828906 -0.07025816
-0.18294166 -0.030939363 0.23511897 -0.9907742 -0.12840486 0.043343347
-0.015700758 0.14295807 -0.058355376 0.0090808775 0.99853086 -0.053418722
0.1552517 -0.118291214 -0.1581766 -0.025189692 -0.9914905 -0.12771855
0.13539107 -0.18117522 -0.21844465 -0.061669413 -0.7666186 0.63913447
-0.17550956 0.038296957 -0.23277663 -0.9969171 0.07718441 -0.014101291
0.10716235 0.05243645 -0.024229672 -0.33472395 0.015605835 -0.942187
0.06556775 -0.11728823 0.11253454 0.017995536 -0.9994538 0.0277177
0.18303107 -0.06979475 0.18837452 0.9988355 -0.04601264 -0.014509452
-0.045420256 0.15760422 0.31625426 0.0060874284 0.9924023 -0.12288429
0.17837907 -0.10413256 -0.285414 0.9981083 0.019875051 0.058178313
0.1800388 0.00310564 0.3537465 0.99919754 0.010672581 0.038604252
0.07219214 0.074658796 -0.20509094 0.079215966 0.83037394 -0.5515469
-0.17323375 0.051593263 -0.20187047 -0.84127444 0.5400858 -0.023760973
0.07500873 -0.11533557 -0.23753516 0.09132004 -0.9954316 -0.027867652
-0.17996722 -0.04829352 0.2702856 -0.99945545 -0.030546712 -0.012474893
0.17288932 0.06900443 -0.039160445 0.96485084 0.2606758 -0.03333164
0.11422715 0.0003128189 0.38821977 0.0077329637 0.027896628 0.99958086
-0.18338668 -0.11716461 0.07340127 -0.96999407 -0.24312015 -0.002042529
-0.17914847 -0.050851576 0.120786875 -0.9965216 -0.08235414 0.01274999
-0.008811701 0.072304115 -0.21155584 0.0024558562 0.83561695 -0.54930717
-0.07836646 0.09708389 -0.18932638 -0.13142264 0.5131927 -0.8481517
-0.18382156 -0.11189893 -0.19719678 -0.9956069 -0.016703336 0.0921304
0.12175964 -0.12006955 0.040476125 -0.09887461 -0.9949097 -0.019454602
-0.116914876 0.14479424 0.34682515 -0.005662277 0.79631543 0.6048551
0.18201904 0.0007185652 0.14399669 0.9947642 -0.08439466 -0.05763427
-0.08394411 -0.11189873 0.18255067 -0.17418307 -0.9636385 -0.20263523
-0.17766634 -0.08605988 0.051953785 -0.97995925 0.19819136 -0.01999726
-0.14789715 -0.11896648 -0.12624724 -0.0709693 -0.99732906 0.01726486
0.09630139 0.0023673438 -0.074595 -0.01633995 -0.0019528605 0.9998646
-0.1636423 0.10655516 0.35964826 -0.9705083 0.18928584 0.14927992
-0.14405115 0.15675956 -0.106023684 -0.30983168 0.9498587 0.04210418
-0.03758532 -0.11695107 0.13763131 -0.018953765 -0.9993194 0.031648062
0.06426482 0.03200202 0.38694525 0.009231097 0.081209324 0.99665433
0.049069773 0.036037073 -0.07010482 0.037122015 -0.07822681 0.9962442
-0.15377279 -0.11967042 0.035366386 0.065273024 -0.99772197 -0.01703569
0.15405296 -0.15351982 0.17892075 0.005788967 -0.44220966 -0.896893
-0.17675537 0.05206055 -0.08095227 -0.9751802 0.21977118 -0.026910605
-0.17832898 0.055628937 -0.0014169023 -0.95160425 0.3066766 -0.019972712
-0.027503124 0.09820037 -0.03915004 0.20117271 -0.78654426 -0.58384734
0.0046393694 0.0066162683 0.39155862 -0.010859808 0.026478408 0.9995904
-0.0031027459 -0.11772049 0.041570093 -0.0008087082 -0.9999906 -0.004272421
-0.11482008 -0.15348515 0.3388705 0.6724844 -0.47613323 0.5666233
-0.10854822 -0.18265997 -0.31300196 0.9982844 -0.03805868 -0.044494458
-0.15817967 0.1304788 0.165412 -0.8905674 0.4544023 -0.020204594
0.11039172 -0.19156763 0.25857577 -0.946753 -0.32189256 0.0066308537
0.09468037 0.15659039 0.12624733 0.014237589 0.99900925 -0.042163994
0.18118103 -0.011832082 -0.314799 0.98419607 0.15373558 -0.08788323
-0.17916669 -0.029273713 -0.14463447 -0.998692 -0.047636583 0.018576134
0.17735215 -0.06148742 0.13545765 0.9880945 -0.15350021 -0.010342908
0.08550177 -0.0021117122 -0.020846076 -0.03898891 0.08069056 -0.9959764
-0.111978635 0.022850668 0.38894743 -0.019995086 0.15641472 0.98748904
-0.16415858 0.1096012 0.1849611 -0.9961024 0.08746447 -0.011399487
0.16290928 -0.12118076 -0.3716168 0.15536004 -0.038107608 -0.9871226
-0.045625653 0.1560303 0.33078963 -0.004343448 0.94884074 0.31572524
0.035351977 0.15600266 0.012627671 -0.041930906 0.9989036 -0.020820653
-0.11670146 -0.115714766 0.16044886 0.10036369 -0.99447155 0.030879969
-0.09981995 0.15636948 -0.14243923 -0.090357594 0.97108483 -0.22097455
0.14590028 -0.120912395 -0.037407245 -0.06819091 -0.9975356 0.016514987
-0.17987598 -0.007755305 0.009160964 -0.99998724 -0.004051157 -0.003005943
0.064823754 0.15678205 -0.09613086 -0.0090848 0.9989622 0.04463137
-0.012960994 -0.11099632 -0.36348686 -0.0005513448 -0.9385178 -0.34523046
0.11026451 -0.19208413 -0.2596075 -0.93384206 -0.3464432 0.08897262
0.1750029 0.067651875 0.18492195 0.9840524 0.17785798 -0.0027177962
-0.138892 0.1168144 -0.16697156 -0.36429927 0.48874524 -0.79272574
0.13892193 -0.050271433 0.40050793 0.07651159 0.40607902 0.91062933
0.015663637 0.037598763 -0.3764889 -0.0028294714 0.9558363 -0.29388583
-0.115702435 0.14722495 0.26417536 0.09218961 0.99077374 0.099340424
0.030503687 -0.005736162 -0.41393793 0.01250348 -0.0043865168 -0.9999122
-0.1798923 -0.0033647928 -0.080314316 -0.99984014 -0.017872814 -0.00054922857
0.10998183 0.1574647 0.14582105 -0.035644297 0.99785763 -0.054859634
0.08479498 0.054298528 -0.07436472 -0.015942266 0.41321382 0.91049445
-0.18245375 0.025894374 0.19315857 -0.99529374 0.09649805 0.008861601
0.17547314 0.06350563 -0.023450779 0.9674453 0.25246048 -0.01769969
-0.076333545 -0.11691654 0.008450303 0.0071789734 -0.99996006 -0.0053251046
-0.08709514 -0.11320107 -0.2819623 -0.0636304 -0.997866 -0.014655243
0.15963118 0.10110765 -0.16010566 0.68479395 0.5806476 -0.44034716
-0.11336888 0.11752599 0.37187368 -0.014478201 0.26091692 0.9652527
0.13210918 -0.20138721 0.2532272 -0.006003057 -0.99978745 -0.019725421
0.074555226 -0.12151609 0.36129346 0.09881381 -0.9909505 -0.0908452
-0.13403802 0.1509532 0.29252225 0.16160583 0.9809206 -0.10806651
-0.17772132 -0.101552695 -0.11469609 -0.80263 0.5964491 -0.005801945
-0.10368078 0.063464314 -0.24751352 -0.0035479886 0.98110116 -0.19346268
-0.025690356 -0.121630475 0.28649542 -0.04164907 -0.99835896 0.03930307
-0.054583196 0.15599336 -0.10609969 0.068084516 0.9880396 0.13835509
0.17896588 -0.087668076 -0.28734526 0.9972775 -0.06391244 0.036780085
-0.12989084 0.0733435 -0.20242673 0.09855309 0.87204283 -0.47940436
0.14806706 0.13887228 0.35101792 0.3749058 0.78367406 0.4952783
0.056391675 -0.12090289 0.26804426 0.01912167 -0.99972695 0.013431695
0.122141525 0.15124688 0.26013714 -0.0063747847 0.9994686 -0.031965427
0.17760333 0.015588824 -0.30411693 0.913586 0.39108688 -0.11140748
0.17718677 -0.06409391 0.088533714 0.9875597 -0.15308562 0.035924412
0.17145483 -0.11341375 -0.37021482 0.15607043 0.012847628 -0.9876624
-0.10512605 -0.022058403 -0.043358173 0.35380033 0.8951341 -0.27122006
0.0041066976 0.08745718 -0.19881007 -0.0028543025 0.42822123 -0.9036694
-0.033967137 0.032012686 -0.3960002 0.019801527 0.9808866 -0.19357003
-0.13082166 0.1533114 0.30791646 -0.007152407 0.9826837 -0.18515287
-0.085427016 -0.117179245 0.044222053 0.009772602 -0.9999332 -0.0061793965
0.09852748 -0.114848934 -0.18795782 -0.045172874 -0.99829686 -0.036916696
-0.10778253 -0.11810326 0.11063047 0.18057208 -0.98350066 0.010962634
-0.16262667 0.11981875 0.21415737 -0.899843 0.43592784 0.01579786
-0.04709459 0.04414138 -0.023515154 -0.16316637 -0.052667532 -0.98519176
-0.010227481 0.15642859 0.2025408 0.00091400306 0.99833506 0.057673592
-0.10649928 0.014306165 -0.4054371 -0.23814942 0.12385916 -0.9632984
-0.1746011 -0.07988887 -0.086067416 -0.99827075 -0.05852289 -0.0055217464
-0.17756589 0.065411866 -0.15394579 -0.80778 -0.022829687 -0.5890419
-0.10523881 -0.11782306 0.11145587 0.093180075 -0.9955411 0.014674266
-0.17988195 -0.06889039 0.1632574 -0.9965222 -0.030335415 -0.07761
-0.16269237 -0.16056406 -0.19876637 -0.0107306475 -0.48750842 0.87305236
-0.120537125 0.12302607 -0.16778016 -0.17990932 0.40049464 -0.89846355
0.02576306 -0.11786804 -0.20376189 0.001661017 -0.9986827 -0.051285803
-0.085083015 -0.11675279 -0.12314307 0.0154016325 -0.9998627 0.0061179344
0.14712496 0.1515007 -0.040002335 0.522732 0.8518275 -0.033781428
-0.0016556211 0.035852157 -0.3813883 0.00067319407 0.9590966 -0.2830781
-0.1794015 -0.099502936 -0.010633256 -0.8376323 0.5451782 -0.033953402
0.18360113 -0.015170387 0.31500512 0.99789226 0.051892348 0.03896494
-0.13343354 0.11788301 0.37259975 0.1286155 0.22730124 0.9652938
-0.18005082 -0.12005086 0.011676914 -0.42455462 -0.90483284 -0.03210737
-0.18043199 0.038547818 0.13093866 -0.99340534 0.111571655 -0.026413098
0.17965436 -0.0211857 -0.0526614 0.99990463 -0.013609542 -0.0023496295
0.18157396 -0.034609076 0.28060013 0.9882147 -0.11411756 -0.10202424
-0.006479237 -0.116332315 -0.2618651 -0.0063853813 -0.9999339 -0.009559
-0.042115442 0.011653428 -0.027656477 -0.16529638 0.07095924 -0.98368794
-0.18279737 -0.02204104 0.32744846 -0.996391 0.05217917 0.06694958
-0.04395376 -0.016998392 -0.03396698 -0.17644994 0.60022265 -0.780127
-0.18354727 -0.14651221 -0.34324402 -0.9996743 0.02314767 0.010746316
-0.106599376 0.15166563 0.302824 -0.04637757 0.969815 -0.23939054
0.15907113 -0.19673795 -0.25049543 0.023423294 -0.9657559 0.25839305
0.029227229 -0.121117644 0.2747522 0.048605803 -0.9985674 0.02237543
-0.17825684 -0.06226059 0.13657938 -0.9931183 -0.10931181 -0.042036593
0.07691936 0.055465713 -0.30256888 0.014809841 0.9803816 -0.19655202
0.008816704 -0.11750627 -0.09050862 -0.0025176262 -0.99997056 -0.0072477115
0.17251384 -0.12052226 -0.13990383 0.09172384 -0.99449307 -0.050698873
0.10545752 -0.11604944 -0.16488439 -0.037929505 -0.9956932 -0.08459503
0.0090322625 -0.117566004 0.019901719 0.0049894983 -0.99997485 -0.0050352737
-0.0900883 0.03283402 0.3872747 0.0073435525 0.123613946 0.9923032
0.12338507 -0.014410938 -0.060105324 -0.5720501 0.67935514 0.4596034
0.0935534 -0.08174201 -0.40033236 0.3492778 -0.5546736 -0.75521004
-0.11472356 0.15680055 0.020118348 0.04901967 0.99861765 0.018970931
0.1355325 -0.11913274 -0.15004632 -0.09578186 -0.991193 -0.09144572
0.055640273 0.15653157 0.32725757 0.018095698 0.96888864 0.24683478
-0.13847275 0.031968955 -0.38421357 -0.10354799 0.9154941 -0.38877806
0.069917254 -0.115184054 -0.27240473 0.09829981 -0.99493027 0.021234594
0.06492713 -0.06434732 -0.41047543 0.07749017 -0.19916995 -0.9768964
-0.14264242 -0.11894674 -0.11112653 -0.02754688 -0.9996193 -0.0015863099
-0.09733362 -0.1098957 -0.30833718 -0.21916436 -0.97064745 -0.09904793
0.12606746 -0.169923 -0.20707653 -0.09608368 -0.7319481 0.67455167
0.1817571 -0.10587014 -0.33653355 0.96566933 0.045810107 0.2557032
0.109387495 -0.16194035 0.2926731 -0.99930984 -0.036977027 -0.003537596
-0.108969145 -0.18833919 0.23377816 0.97468764 -0.2219208 -0.027112665
-0.17817008 -0.078158334 0.260779 -0.9967104 -0.07963219 -0.015071716
0.16657186 -0.16271394 0.33564785 0.08466133 -0.52405405 0.8474667
0.06494871 0.0029729714 -0.02213765 0.22808646 -0.0020427755 -0.9736388
-0.15695097 0.1391934 -0.11840588 -0.9949689 0.09747616 0.0231374
-0.17989214 -0.013941086 0.3557546 -0.9995004 0.018187016 0.025850726
-0.19151442 0.05440848 -0.11698078 0.42346543 -0.6254271 0.6553762
-0.044347636 0.15714434 0.32625073 0.007192503 0.9759169 0.21802367
0.17985961 -0.13498004 -0.24200788 0.9682705 0.1630381 -0.18939605
-0.17697062 0.058090977 -0.011439724 -0.9466306 0.3183265 -0.050584417
-0.13350272 -0.119063504 -0.012640582 0.03422974 -0.99923396 -0.018967392
-0.118820645 -0.19114383 -0.31857952 0.2677978 -0.8767527 -0.39948598
-0.10002196 -0.10870937 -0.31320667 -0.023512175 -0.98648775 -0.16213918
-0.017880213 0.11949371 -0.18249007 -0.015011417 0.32803875 -0.944545
0.18088046 0.030532127 0.0076388638 0.9982494 0.053723536 -0.024736894
0.1789257 0.02632514 0.36502975 0.9914083 0.09376142 0.091204844
0.1182516 -0.11887102 0.12865186 -0.1230694 -0.9907839 0.05657972
-0.11117853 -0.1607373 -0.24589573 0.992392 0.114830986 -0.044408172
-0.17647295 -0.14266351 0.29060093 -0.9717298 0.22201838 -0.08030531
-0.046747718 0.09878512 -0.19265494 -0.12217741 0.41913664 -0.899665
-0.14930774 -0.20113763 -0.29288813 0.018448982 -0.99083674 -0.13379876
-0.1619208 0.112919606 0.099250935 -0.97082645 0.23766446 0.03180488
-0.041203078 0.06487665 -0.07423566 0.07375554 0.2885985 0.95460516
0.17989174 -0.030077443 0.37863827 0.9847445 0.06440147 0.16164981
-0.11971062 0.15960704 -0.10983256 -0.059682876 0.98897016 0.13555785
0.17120758 0.07731636 0.36250025 0.97528327 0.19548525 0.10299584
-0.17920922 -0.10141458 -0.16256659 -0.9902087 0.11057804 0.08520182
-0.17998968 -0.028987162 -0.30943793 -0.9974856 -0.06989979 -0.011689284
-0.035566606 0.11283793 -0.18544094 -0.074079804 0.5156005 -0.8536207
0.17977872 -0.027188027 -0.0065727783 0.9998903 -0.014463746 -0.0031887372
-0.16189286 -0.16661045 -0.35547495 -0.058610786 -0.5474851 -0.8347603
0.12308036 -0.11905361 -0.061179444 -0.14547509 -0.9892721 -0.013328969
0.015377004 0.100266725 -0.19362417 -0.002092742 0.55302393 -0.8331627
0.17524599 -0.09468443 -0.059090108 0.9939621 0.10505944 -0.031652816
0.008472156 0.115025744 0.28395307 -0.012476209 -0.2288493 -0.9733819
0.18316802 -0.18240999 0.24708453 0.99941283 0.030194663 0.01619532
0.096291736 0.06230749 -0.25468808 0.027362311 0.99845016 -0.04846298
0.09651774 0.06569695 -0.22813109 0.034894966 0.9929989 -0.112851806
-0.15951091 -0.16279021 0.33375844 0.004330715 -0.5104636 0.85988843
-0.06471547 0.1591282 -0.14459269 -0.0903655 0.97021514 -0.22475901
-0.13498835 0.16007727 -0.1163587 -0.21635963 0.9733881 0.0755261
-0.18066804 -0.054793328 -0.28414539 -0.9950682 -0.09768328 0.017240904
-0.0630656 0.05398782 -0.31291935 -0.011592117 0.9840687 -0.17741045
-0.18254642 0.005319517 0.15067641 -0.99978083 0.0074446574 -0.01956511
-0.17921323 -0.10518977 -0.32198814 -0.9963486 -0.07041304 0.048284963
0.1591114 0.1335289 0.29468396 0.9609836 0.26586294 -0.0763379
-0.123452365 -0.120258704 0.0990587 0.010527227 -0.9998729 0.011968999
0.062022477 -0.112802416 -0.35108683 0.03947785 -0.9822401 -0.18342812
-0.12755412 0.03614358 0.38687378 -0.006643195 0.12818794 0.99172765
0.18332914 -0.01162593 0.20167874 0.99819875 0.042937048 -0.041901316
-0.069794804 -0.032570258 -0.41317075 -0.09543596 -0.03900611 -0.99467105
-0.16400714 0.10485544 0.29131433 -0.9865458 0.1629616 -0.013066433
-0.16422504 -0.11978049 0.16880094 -0.12082776 -0.2758202 -0.95358473
-0.16497517 -0.042761285 0.39792842 -0.071847685 0.329169 0.9415337
-0.15464061 0.14158864 0.19829361 -0.9070524 0.42100972 0.0026017597
0.17592692 0.06603095 0.032324426 0.9855791 0.1692009 -0.0022407728
0.17305377 0.073444664 0.20669669 0.95871985 0.28434202 -0.0024137693
-0.17383268 -0.121381894 0.04751595 -0.023430651 -0.99970776 0.0059491885
0.18046102 0.015965234 -0.0026951465 0.99859315 -0.034969654 -0.039860833
0.102556065 -0.117164396 0.019514412 -0.04797902 -0.9988415 -0.0036959697
0.046135798 0.15285045 0.2638467 0.02182943 0.99763846 0.06512295
0.18338346 0.0013919363 0.26420987 0.99513215 0.097590856 0.0137116145
-0.06683757 0.15334186 0.24171406 -0.088383004 0.9865898 0.13721871
0.15522586 0.14165342 0.32717362 0.7486799 0.6467325 0.14565527
-0.1009109 -0.11761294 0.09859902 0.039801273 -0.9992018 0.0034152404
0.059625752 0.1548487 0.23465939 0.043933347 0.99661326 0.069511704
-0.021735393 0.042701203 -0.36101297 0.00013315244 0.9695865 -0.24474898
0.02507263 -0.11737686 0.112164065 0.059512477 -0.9981343 0.013646367
-0.16060115 -0.029246662 -0.38685644 -0.65404516 -0.22674005 -0.7216743
0.13839759 0.15185662 0.24500573 -0.08578644 0.9962963 -0.005868078
-0.050048776 -0.07241566 0.40549433 0.0027738845 -0.04802478 0.9988423
-0.18168347 0.0075528733 0.12083064 -0.99878985 -0.0060870126 -0.04880333
0.18312208 -0.020216947 0.188632 0.996032 0.059014775 -0.0666139
0.1622224 0.035069507 -0.35325643 0.63732904 0.7293043 -0.24885108
-0.11368891 -0.11825494 0.13570416 0.12209895 -0.99168134 0.040742524
-0.023937227 -0.018426767 -0.05500335 -0.0694456 0.9967558 0.04068484
0.052134804 -0.021657255 -0.06520134 0.08864567 0.47364798 0.8762417
0.022878606 -0.11747312 0.056170754 0.048616882 -0.998795 -0.006713397
-0.17711638 -0.044397082 -0.12328101 -0.9869107 -0.16050702 0.015646366
0.06846817 0.1564348 0.09104615 0.018353086 0.9998237 -0.0039665857
-0.17574626 -0.08375511 -0.15280361 -0.9931655 -0.052874062 0.104050815
-0.14477234 -0.19475904 -0.24106568 0.00805988 -0.95951366 0.28154674
-0.1116448 -0.1328254 -0.25144508 0.9993802 0.027212432 -0.022332646
-0.162446 -0.11886996 -0.12236532 0.124120206 -0.9922204 -0.009636662
-0.09406471 -0.11695435 -0.016828882 0.022516191 -0.99974334 -0.002501799
-0.17707749 -0.04812451 0.0052506323 -0.9645627 -0.26047575 -0.042084463
-0.08021832 0.050589956 -0.3274567 -0.03533484 0.9795702 -0.19797374
-0.053506292 -0.11634418 0.18326952 -0.11507675 -0.9886177 -0.096914284
-0.18139781 -0.013251917 0.13815731 -0.99049443 -0.11156211 -0.080465585
0.17999214 0.0075840363 -0.23610544 0.9898012 0.14242287 -0.003065943
-0.16887337 0.08572695 0.15718059 -0.96899563 0.24562745 -0.026732545
0.11720892 0.0039588893 -0.032399 -0.6284163 0.11595822 -0.7691857
0.0054996363 0.04695748 -0.34583035 -0.0041767056 0.98462075 -0.1746554
-0.052708413 0.15668938 -0.118103184 0.060051538 0.9973486 0.041104715
0.006188241 -0.12243062 0.28060797 0.01485595 -0.99856365 0.05147777
0.18210591 -0.071722336 -0.21720853 0.99783397 0.019610751 -0.062790945
-0.08995201 -0.1116684 0.14937072 -0.046985123 -0.91811925 0.39350903
0.10903375 -0.18173386 0.23524483 -0.9977505 -0.06439949 0.01861952
-0.15946114 0.12638381 0.15934776 -0.98456335 0.17420202 -0.01699129
0.16312869 0.11010581 -0.12869078 0.86558044 0.4103372 0.28704324
-0.11395437 -0.1961407 -0.2670037 0.51592916 -0.852126 0.08774027
-0.18321149 -0.038880393 0.2034789 -0.9993224 -0.034774087 -0.012061523
0.16812262 0.07739176 -0.09681627 0.9462168 0.32172468 0.0341606
-0.080116495 0.15582395 0.12298277 -0.052284215 0.99839693 -0.02167845
-0.11118961 -0.1380647 -0.22630836 0.9929881 0.11495661 0.027561117
-0.107806146 -0.087049626 0.40017816 0.0013077547 -0.4201226 0.9074665
-0.1796344 -0.029937565 -0.0059241047 -0.99917614 -0.04045584 -0.0032245752
-0.006250207 -0.12253084 0.3535392 0.0030357253 -0.99723953 -0.074188866
-0.18040033 -0.17795676 0.31031606 -0.9323784 -0.32619587 0.15577815
-0.1692812 0.095982365 -0.14759539 -0.71782446 0.57240885 -0.39632827
-0.06471689 0.043235913 -0.3565291 -0.015485279 0.9711419 -0.23799911
0.1806157 -0.05864235 0.36476034 0.99476975 -0.0777771 0.06621072
-0.14255472 -0.119090155 -0.05525828 -0.007903668 -0.9999513 -0.005912493
0.13743603 -0.18231602 0.20270692 0.07842679 -0.8362663 -0.54268587
-0.015227106 -0.11618011 -0.27655825 -0.0018615363 -0.9999807 -0.005927925
0.17297022 -0.17373902 0.19468856 -0.0048182015 -0.7124548 -0.70170146
-0.09902764 -0.10786064 -0.33271444 -0.35340586 -0.9326624 0.07242308
-0.1007797 0.13547246 0.3597607 -0.06997668 0.7311653 0.6786019
0.025419528 -0.07672932 0.40432245 -0.0022879506 -0.36418492 0.9313238
0.06319569 -0.1259102 0.37224454 0.14910415 -0.985397 -0.082224175
0.18038243 -0.011685128 0.13199143 0.9988217 -0.04502135 -0.018121323
0.09732046 -0.0054178764 0.38886976 0.02583152 0.054693982 0.998169
-0.035335027 0.035367873 -0.073787086 0.06341215 -0.2640166 0.9624314
0.11496688 -0.12898195 0.35351542 -0.39752188 -0.38990742 0.83063143
-0.18321991 0.0020494328 0.2605089 -0.9969087 0.07844633 -0.004373341
0.15928292 0.12384364 -0.027959548 0.98414195 0.17293364 -0.039479204
0.06712089 -0.12181725 0.3263854 0.092893615 -0.99556434 -0.014910071
0.010035428 -0.117352225 -0.11761948 -0.0018996894 -0.9999843 -0.005271829
0.031186678 0.15444793 0.29461166 -0.017290307 0.98877627 -0.1484
-0.028307242 0.04255225 -0.3615579 0.00021879695 0.95593846 -0.29356715
-0.16266677 0.11930747 0.19811015 -0.89205927 0.4507849 -0.0319876
-0.10979973 -0.17029966 -0.2849954 0.99053985 0.13424644 0.028437816
0.012371021 -0.11716218 -0.16002053 0.00015254479 -0.99971753 0.023766479
0.10174017 0.15629488 0.123817995 0.009154659 0.9982691 -0.058096286
-0.10965181 -0.11867462 0.08839515 0.20603573 -0.9785316 -0.0050168857
0.18095893 -0.09222686 -0.22503228 0.9883137 0.029648203 -0.14952286
-0.029186815 0.15623133 0.07893993 -0.007322716 0.99979484 -0.018886505
0.07949678 -0.12069947 0.38932616 0.039090313 -0.90539765 0.42276114
0.10196551 -0.11690052 -0.058235507 -0.05780204 -0.9983171 -0.004661332
0.013259733 0.15643893 0.06646454 -0.012706952 0.99971527 -0.020196885
0.0312668 -0.11670021 0.13864467 0.016454019 -0.99937963 0.031139117
0.04137866 -0.117092595 -0.010860378 0.0077512083 -0.9999669 0.002471842
0.11391094 0.0633959 -0.23477711 -0.001991557 0.98134345 -0.19225262
0.12421991 -0.115206994 0.3869981 0.2321413 -0.7804057 0.58058363
-0.091267556 -0.05482174 -0.40871847 -0.093249284 -0.17412068 -0.9802992
0.1833946 -0.18396544 -0.3114913 0.98313075 -0.15457428 -0.09777903
0.17912959 0.04336423 -0.10361386 0.9983419 0.045517664 0.03523506
-0.1303467 -0.032306004 -0.39987847 -0.2985567 -0.19273359 -0.9347287
0.024991386 -0.120813556 0.29392514 0.10552802 -0.9940186 0.028120583
-0.17623758 -0.09967023 0.25062627 -0.9982002 -0.037887923 0.046486005
-0.11490072 -0.010683296 -0.40416226 -0.3454295 0.1723043 -0.922491
0.06939418 -0.11727384 0.07031234 0.0069801854 -0.9998982 -0.012442276
0.0861926 -0.10950829 0.15413797 0.24514301 -0.9152676 0.3196719
-0.1798986 -0.05279841 -0.17757972 -0.9977666 -0.0019563753 0.06676797
-0.08429832 0.07127939 -0.20966683 -0.021464447 0.932821 -0.3597003
0.14697674 0.15061632 0.19927076 0.6960899 0.71795046 0.0024216995
0.17612225 -0.07306063 0.13344398 0.9989634 -0.044616178 -0.00902384
0.10215293 -0.12183135 0.2715931 -0.4964909 -0.8630204 0.09323402
0.17818443 0.018478118 0.37369794 0.9066634 0.12891287 0.40167513
-0.108355306 -0.09273154 0.3989508 -0.089109935 -0.16462481 0.98232275
0.026098471 0.11258723 0.37429097 -0.032600854 0.1937499 0.98050916
-0.20320475 0.09742386 -0.13644123 -0.29329434 0.7418215 -0.6030583
-0.11649026 0.044235352 -0.34348324 -0.06669803 0.972441 -0.22340502
-0.16373396 0.11416232 0.19223519 -0.9946755 0.100482926 -0.022887735
-0.027615236 0.100191586 -0.04989593 0.14331208 -0.9672606 0.20944817
-0.055487107 0.008300345 0.38985026 -0.04839935 0.03863724 0.9980805
0.18222226 -0.042702876 -0.20738633 0.99612963 0.0014287748 0.08788485
0.006068726 0.14844728 -0.08711605 -0.011687531 0.9857838 0.16761152
0.14917265 -0.15977547 -0.19844241 0.059308328 -0.5538232 0.8305193
-0.025585787 -0.06986233 -0.41062146 0.0045349444 -0.19463593 -0.98086506
-0.12337206 -0.11837213 -0.0921478 0.045323245 -0.99892527 0.009701781
0.08569317 -0.034092966 0.39248884 0.025544468 0.2391717 0.9706412
-0.14665268 0.15034935 -0.047508437 -0.54258025 0.83999115 0.004636306
0.13300991 0.15703367 0.04920559 0.05669732 0.9983116 0.012628178
0.18262741 0.009230249 0.14876287 0.9992723 -0.032187864 -0.020462394
-0.112262875 -0.12642439 -0.21297866 0.99901515 -0.0441688 -0.004222522
0.111423336 -0.19249782 0.24313779 -0.8237324 -0.55874765 -0.09626069
-0.18039635 0.040149987 -0.11727075 -0.9952116 -0.027607646 0.09376425
0.14081709 0.1557538 -0.10540516 0.38063952 0.9242531 0.029489338
0.11979625 0.15635805 -0.023117414 0.04178888 0.9969698 -0.065611735
-0.06070454 -0.12040341 0.27995914 0.017072044 -0.9998512 -0.0024639277
-0.17786367 -0.08249632 0.2583059 -0.9961091 -0.07957931 0.0378645
-0.110587135 -0.15582438 -0.30243427 0.9994873 -0.008883688 0.030761197
-0.18262321 -0.026203597 0.2713848 -0.9829096 -0.18275826 -0.022092069
-0.18259825 -0.05450746 -0.19810545 -0.9971857 0.02392692 0.0710504
-0.051830377 0.15657572 0.32857323 -0.017593913 0.96975166 0.24345893
-0.10098923 -0.041127834 0.39416915 0.031225957 0.19372961 0.98055786
0.06203483 0.15661228 0.3264176 0.017043682 0.9729745 0.23028271
-0.01383294 -0.11750247 -0.034091745 0.0004806515 -0.9999993 -0.0010681144
0.032359097 -0.11727139 -0.0775474 0.040721577 -0.99914986 0.006426112
0.015262241 -0.117678426 0.056019835 0.015805785 -0.99985325 -0.006613714
-0.17598885 -0.10456984 0.2510009 -0.9966138 -0.07297137 0.03789614
-0.18348637 -0.003820826 0.24869317 -0.99936664 0.034607887 -0.008280274
0.17077515 0.055208474 -0.21331461 0.9492298 0.31397176 -0.019611467
-0.18303218 -0.108437344 -0.04614033 -0.99164134 0.12897117 0.0037222866
-0.09148635 0.05374327 -0.31142867 -0.022601793 0.97002685 -0.24194427
-0.038041733 0.15430479 0.24751994 -0.047799785 0.99384695 0.099917285
-0.18071431 -0.1022079 -0.03437813 -0.7872347 0.6165855 0.009153334
-0.18228522 -0.10364767 -0.35072526 -0.99390066 0.04716539 -0.09968428
0.030641474 0.1532401 0.26266426 0.0051358733 0.9958124 0.091275714
-0.041201234 -0.11555822 -0.2969602 -0.10198629 -0.9947367 -0.0098887775
0.1342744 0.15221316 0.25925803 -0.08126971 0.9951592 -0.05525794
-0.1786543 -0.07069412 0.25410786 -0.9981166 -0.060006402 0.012739938
-0.16073827 0.12267535 0.0036618982 -0.9410486 0.33732063 -0.025344098
-0.03949364 0.06296693 -0.024592426 0.0032611904 0.05054083 -0.9987167
0.17638189 -0.065775596 -0.09546979 0.9956213 -0.09141012 0.019552073
0.061066106 -0.12085305 0.2938334 -0.008985071 -0.999738 -0.021051612
0.11925624 -0.15675443 -0.19750091 -0.2836838 -0.57836986 0.76486063
0.17960453 0.001585199 -0.16114813 0.9999213 -0.0020445168 -0.012373905
0.024729043 -0.033843853 -0.41574007 0.00082349684 -0.03403787 -0.99942017
0.18077761 -0.109470405 0.20552424 0.9804927 0.021214884 0.19540733
-0.17573734 -0.12081024 -0.045105893 -0.033807576 -0.99937457 0.010369487
-0.11570297 -0.11947836 0.066865474 0.11929365 -0.99245054 -0.028477527
-0.167601 0.09650538 0.2075665 -0.9863287 0.16475435 -0.0034163913
-0.17982577 -0.013020194 -0.05522196 -0.99990225 -0.013319621 -0.0042491574
0.17982702 -0.025321765 0.0058413115 0.99991775 -0.012816329 -0.00053401367
-0.05963733 -0.023327429 -0.068242006 -0.104433626 0.4286174 0.89743006
0.050224043 0.056841705 -0.07309023 0.056637395 0.6441485 0.7628007
0.007497212 -0.121956564 0.2888823 0.01537308 -0.9985036 0.052480254
-0.17979878 -0.046363223 0.15032485 -0.9985693 -0.029765397 -0.044423353
-0.17983298 -0.008594535 -0.02644832 -0.9999676 -0.007865651 0.001708929
-0.032106142 -0.1258448 0.37978926 -0.023618657 -0.9966982 0.077684544
-0.026110953 0.04214974 0.38653395 -0.008610558 0.07693214 0.9969992
0.10723626 0.15757626 0.16445903 -0.027099172 0.99942106 -0.02057219
0.11691323 0.08733877 -0.18942465 0.12556055 0.5729121 -0.8099421
0.17876904 -0.052470654 0.09388905 0.9964658 -0.08309457 0.012300733
0.18232591 0.0221562 0.2764066 0.99880314 0.04427373 -0.020788077
-0.022685327 0.05359184 -0.025591932 0.0007704498 0.017560154 -0.99984556
-0.029031835 -0.11779916 0.09795137 -0.045872547 -0.9989378 -0.004351757
0.02123543 0.022820028 -0.41176444 -0.021630162 0.49443817 -0.86894363
-0.110757515 -0.11809145 0.048901565 0.15682752 -0.98754245 -0.0128460685
-0.0684998 0.15662219 0.05607815 -0.012111062 0.99963546 0.024130605
-0.11468641 0.15538897 0.07906654 -0.0144167235 0.99874675 0.047928747
0.18299927 -0.099978074 0.19104624 0.9987527 0.033253152 0.037245966
-0.04080693 -0.117589414 0.099407025 -0.009711584 -0.99993455 -0.006049714
0.17781456 -0.10640147 0.224237 0.9740541 -0.051311705 0.22042163
0.18370947 -0.036626793 0.19858155 0.9999749 0.002471862 -0.0066374065
0.16773246 0.09703221 -0.122198746 0.5028959 0.5287546 0.6837502
0.18330686 -0.10687291 0.018969811 0.9537323 0.30055898 -0.0076838788
-0.13841641 0.15659195 -0.13745818 -0.11945929 0.9395036 -0.3210334
-0.18313351 0.067581356 -0.14990716 -0.43497515 -0.13282296 -0.8905923
-0.17898953 -0.034935474 -0.062176917 -0.99276686 -0.11858184 -0.018768894
-0.09103322 0.10506545 0.3754305 0.010978063 0.19101529 0.98152566
-0.057446763 0.15101375 0.2615637 -0.05523478 0.9882245 0.14269361
0.16171697 0.1188674 0.18384555 0.9086882 0.41747406 0.0010953731
0.1796596 0.024851084 -0.09181234 0.9999752 -0.0067899926 -0.0018615262
-0.027021779 -0.1173614 -0.02895521 -0.026121734 -0.9996578 0.001372821
-0.16706425 -0.14170238 0.34623572 -0.19399829 -0.41005135 0.89119166
-0.11385498 0.07295883 -0.20355074 -0.1658103 0.8418042 -0.51368535
0.1721916 0.07421687 0.34796846 0.9864928 0.16365281 0.007044657
-0.17546715 -0.08432309 0.006844758 -0.99616784 0.07846403 -0.038639203
-0.039977394 -0.11710767 -0.07260973 -0.03776141 -0.999286 -0.0012350794
0.17948242 0.029873606 -0.14601375 0.9995675 0.015709756 -0.02486107
-0.1055289 0.06538857 0.38309616 0.008459576 0.1276503 0.99178314
-0.045143362 0.15679303 0.1961392 -0.0047678584 0.99829507 0.058173966
0.17894252 -0.13018553 -0.31011525 0.99715185 0.015504421 0.073809564
-0.17867295 -0.13320798 -0.25901717 -0.99631834 -0.0047660186 -0.085598305
-0.18043834 -0.059449587 -0.2603578 -0.99745744 -0.070186995 -0.012343414
-0.126777 -0.20005871 -0.28544983 0.120440334 -0.9920414 -0.036715645
-0.18197857 -0.048738584 -0.231711 -0.9979645 -0.01696369 -0.061474342
-0.007969018 0.15766539 -0.15366645 0.003700264 0.8882802 -0.45928705
0.13420333 0.018231276 -0.39737213 0.24016024 0.21104926 -0.9475132
-0.012374856 0.1554691 0.041307345 -0.015621487 0.99879974 -0.046422485
-0.13475025 0.13533978 0.3612066 0.036417853 0.7838031 0.6199407
0.111140415 -0.19164246 -0.24862368 -0.8541952 -0.4931739 0.16471238
-0.17977901 0.0071488405 -0.22883752 -0.99756676 0.069509715 0.0053808573
0.18223904 -0.054440945 0.3490169 0.992513 -0.026139487 0.11930874
-0.108036 0.14863431 0.24636854 -0.034162644 0.9932932 0.11046022
-0.0074710585 -0.11710504 -0.13619149 0.00076292915 -0.9999865 -0.005126884
0.16056131 0.12272086 0.21161088 0.9229262 0.38496566 -0.0029573746
-0.049911313 -0.11767172 0.1953848 -0.100452304 -0.9937719 -0.04823591
0.08433864 0.1358326 0.36148956 0.08593194 0.63937736 0.7640761
0.17974417 0.008879678 -0.0689716 0.9999044 0.0017240783 -0.01371634
0.16805786 -0.121415325 0.11153846 -0.107963584 -0.9939596 0.019701438
-0.15230939 -0.03110382 -0.3921312 -0.47874933 -0.3551176 -0.80292624
-0.1634777 0.09915938 -0.04173228 -0.9943587 0.10130818 -0.031422682
0.036980312 -0.1163079 0.14211369 0.01690317 -0.9961925 0.08552669
-0.041778695 0.16031246 -0.14630999 -0.04382526 0.9938174 -0.102011256
-0.016411155 0.06867035 0.38299733 -0.012534025 0.18546158 0.9825716
-0.09002132 0.1552968 0.11169816 -0.05475779 0.99849933 -0.0008684458
0.084348954 0.08761226 -0.08687016 -0.038221773 -0.4310244 0.9015304
0.177098 -0.06741186 -0.020808684 0.9947798 -0.10050105 -0.017683692
0.078693315 0.104173355 -0.049805045 -0.057313845 -0.9981717 0.019190924
0.107834004 -0.1327527 0.19599214 -0.9973377 -0.06559029 0.031866837
-0.07699908 -0.11400043 0.18806341 -0.13801843 -0.9815176 -0.13256688
-0.04590869 0.060020443 -0.27628192 0.0074698594 0.96747965 -0.2528385
-0.15915422 0.10312678 -0.09615302 -0.98797435 0.15372275 -0.016612971
-0.17689994 -0.0034353188 -0.33746082 -0.9840399 0.10409327 -0.14432664
-0.06157877 -0.11586918 -0.23586127 -0.080158524 -0.9953143 -0.05407435
-0.07481625 -0.116871275 0.0027104102 0.0087351035 -0.99993664 -0.0071025165
-0.0056573534 0.020753236 -0.41219044 -0.012313805 0.23101518 -0.9728722
-0.039618988 -0.11705724 0.016816277 -0.04018965 -0.9991915 -0.0010062659
-0.059633266 0.10791255 -0.18546134 -0.12476672 0.5368115 -0.834426
0.11179818 -0.054634605 -0.4024049 0.4073209 -0.3684097 -0.83568174
-0.09583201 -0.027288983 -0.057759933 0.35686064 0.821873 0.44404417
0.10448861 -0.09929658 0.18651046 -0.90383995 -0.20047235 -0.37800032
-0.017334292 0.15292455 -0.15965372 -0.0023743697 0.7020144 -0.71215874
-0.18388982 -0.10879301 -0.20154789 -0.99987453 0.015485728 -0.0033259988
-0.07492793 -0.006926904 -0.071746714 -0.013903266 -0.02329922 0.9996318
0.056066565 -0.11369546 0.14884995 0.0331049 -0.8678251 0.49576575
0.054582667 0.05968917 -0.27643913 -0.011573682 0.98250365 -0.18588352
-0.17512468 -0.08262629 -0.0028098705 -0.9997372 0.011151243 -0.020029524
0.11333854 0.11715766 -0.17149061 0.1267127 0.40786335 -0.9042076
-0.16669232 0.1011952 0.21952088 -0.9439585 0.3300517 -0.0028447236
-0.08098609 0.15772201 -0.13308822 -0.035604294 0.99929893 0.011573302
0.18274626 -0.03984522 0.34416935 0.99813205 0.036019627 0.049346127
-0.105324656 -0.11165094 -0.30626518 0.7237715 -0.6836817 -0.09345646
0.14705887 -0.19538668 -0.24535383 -0.005735869 -0.96758276 0.25248897
-0.10971258 -0.12715228 -0.28162006 0.99220985 -0.1242609 0.008879564
-0.044079687 0.048273806 -0.3389253 -0.029347051 0.96212524 -0.27102345
-0.12594445 -0.19066261 -0.23267259 0.07342921 -0.9226837 0.37850082
0.15803131 0.13186298 0.113518946 0.9376365 0.34760034 -0.003447574
0.093805075 0.062046003 -0.2588264 0.026067108 0.99553263 -0.09074878
0.18161176 0.028552745 0.034757767 0.9942001 0.10752824 0.0019246006
-0.05815586 -0.12451288 0.36405975 -0.089445375 -0.97220206 -0.21638528
0.1793321 -0.019137813 -0.15129527 0.9987735 -0.019720657 0.04541542
0.17827915 -0.045677397 -0.15404485 0.9978002 -0.029201977 0.059515394
0.10996008 -0.16818093 -0.25024107 -0.9892378 0.14370032 -0.027547592
-0.17625213 -0.07086213 0.046676274 -0.9997969 0.01408863 -0.014409
0.10815201 0.15580551 0.08076907 -0.061903942 0.9980164 0.011451849
-0.09295478 0.038514785 -0.36873043 -0.02287361 0.96837527 -0.2484476
-0.17447273 0.09684916 -0.12725441 -0.005636458 0.87326455 0.48721382
-0.16331546 -0.19183163 -0.2335788 0.051544607 -0.8897741 0.4534812
0.18061893 0.012140104 0.3382245 0.9976081 0.033854377 0.060265057
-0.10834691 -0.11225661 0.1579506 0.53269005 -0.7044489 0.46903422
0.17828977 0.057708718 0.054147035 0.9348496 0.35469142 0.015819522
-0.05579427 -0.1227334 0.3373673 0.028100923 -0.99735826 -0.06698414
-0.020512592 0.15663011 0.122220755 -0.0063763857 0.9997196 0.022805493
-0.17574881 -0.121617615 0.29669982 -0.9944698 -0.058869105 -0.0869721
0.15784222 -0.15976606 -0.3590096 0.037187327 -0.51434076 -0.8567792
-0.15971462 -0.1685389 -0.20470324 -0.00538813 -0.63510156 0.7724098
0.17965363 -0.015715426 -0.06679514 0.9999184 -0.010131009 -0.0077813477
0.05881717 -0.11496541 0.14605449 0.12241618 -0.8566649 0.50113827
0.010512794 -0.11755286 0.01884864 0.005592188 -0.9999717 -0.005035258
-0.09450602 0.071186684 -0.028113214 0.3791612 -0.4324435 -0.81806445
-0.17995483 0.0032020193 -0.08903319 -0.99997187 -0.006645016 0.0034865353
-0.17001773 -0.18924902 0.30382404 -0.020156564 -0.88924974 0.45697764
0.058959745 0.06348178 -0.24830058 -0.011761064 0.991986 -0.12579949
0.06194798 -0.11695754 0.03224548 0.010619342 -0.99992704 -0.005752144
0.17630239 0.026015908 -0.22861876 0.98601645 0.16619168 -0.012322197
-0.15900749 -0.13780147 0.3479065 0.0357234 -0.36826286 0.9290351
0.1679101 0.090827145 0.27243078 0.98803735 0.15397377 -0.008623617
-0.16065995 -0.12046919 0.06545274 0.06436171 -0.9978729 -0.010353906
-0.040884644 0.057156995 -0.07252841 0.011248095 0.19739509 0.9802595
0.08620775 0.1567553 0.050342984 -0.005487913 0.999044 0.043369755
0.16884345 0.0861143 0.35569263 0.96666235 0.25501442 0.023054402
-0.094876885 0.058741186 -0.28132632 -0.00010615695 0.9938717 -0.11053971
-0.14612544 0.020329323 -0.3944707 -0.31737193 0.43023548 -0.84508723
-0.18017109 -0.10862171 -0.16292796 -0.99603814 -0.015927857 -0.08748922
-0.028487232 0.15291171 0.25843403 -0.01740986 0.994745 0.10089218
0.06202221 -0.11675848 -0.03749137 0.016477032 -0.9998507 -0.0052100983
0.18248135 -0.15503149 -0.31161124 0.9550247 0.23780896 0.17712899
-0.063948505 0.08292251 0.3793692 -0.00068261387 0.23283069 0.972517
-0.07497212 0.15613677 0.11719962 -0.08042777 0.9963922 0.027093062
-0.054812364 -0.12061604 0.29179347 -0.0045454474 -0.99795794 -0.0637124
0.15648797 0.13932434 -0.020405412 0.97770214 0.20906857 -0.019722324
0.14176711 -0.12035462 -0.009856242 -0.005500707 -0.99998426 -0.0010909863
-0.03600373 0.15763026 0.17616506 -0.010802552 0.9999379 -0.0027464114
-0.16108657 0.12280164 0.017639138 -0.93955284 0.34202355 -0.016131511
-0.15998521 -0.14154908 -0.19026656 -0.076706626 -0.3550086 0.9317108
-0.055032372 0.14339313 0.35485435 -0.038843427 0.79601085 0.60403466
0.12624618 -0.14693327 -0.19054367 -0.124385744 -0.43959853 0.88953996
0.12382635 0.09734489 0.3761223 -0.019629031 0.14288424 0.98954475
-0.012342507 0.15686028 0.11346062 -0.0087857125 0.9996188 -0.0261741
0.08321188 -0.01241713 -0.41040847 0.11428318 0.16708386 -0.97929686
0.120595604 0.15309769 -0.04696001 0.08130631 0.99227005 -0.09375208
-0.14872968 -0.046459086 0.3987816 0.03633681 0.21117975 0.9767716
-0.029872082 0.13409196 0.36402526 0.011464672 0.6483632 0.7612449
0.10391892 0.096275605 -0.056242183 -0.5938946 -0.8041412 -0.025419224
-0.08314262 -0.05307735 -0.4097992 -0.09889289 -0.12738465 -0.986911
0.14052334 0.15308689 -0.032634094 -0.11173274 0.9881939 -0.104826726
0.13004197 -0.11959935 0.13025217 -0.0068138773 -0.9978866 0.06462144
0.17686978 -0.06415697 0.106327415 0.9828631 -0.1839419 -0.012057831
0.16392343 -0.11598003 0.15595025 -0.021201165 -0.9712965 0.23692544
0.11021317 -0.13618842 -0.36275166 -0.77012867 -0.17156798 -0.61438286
-0.1791742 -0.050444443 -0.16877408 -0.99501747 -0.004676291 0.09959132
-0.17250192 0.07445551 0.30253127 -0.9605795 0.27724978 0.02048355
0.04952872 0.050335 -0.3320587 0.01418709 0.9828384 -0.18392228
0.027246825 -0.02864754 -0.41595724 -0.0026473408 0.006141525 -0.99997765
-0.07003364 -0.08962721 0.40047196 -0.0017919716 -0.43335295 0.9012225
-0.15690383 0.1157824 -0.11317063 -0.9824312 0.18632703 0.010545964
0.018791256 0.15396053 -0.10529137 -0.038468882 0.96445936 0.26141596
0.09694211 0.032772373 -0.38669914 0.047493104 0.9624585 -0.26724154
0.1759733 -0.17209524 0.1934656 0.14623374 -0.7048041 -0.69416624
-0.13297707 -0.116138 0.36317804 -0.168656 -0.9805314 0.10056522
-0.18020234 0.028266964 -0.11997351 -0.9996068 0.013880038 0.02436633
0.16520134 0.038470645 -0.33306113 0.50930744 0.8369392 -0.20034641
0.11858922 -0.11916124 0.16767333 -0.42874107 -0.25781804 -0.8658585
-0.05521002 0.15667185 0.15964657 0.0039038481 0.9993851 -0.034844894
0.08827542 0.09872182 0.37696022 -0.014894997 0.19641015 0.98040867
0.019228594 0.15423265 0.2930941 -0.004063617 0.9914508 -0.13041782
-0.021086898 -0.07697262 0.4039429 -0.009218682 -0.096257 0.9953138
-0.091638595 0.1549675 0.19594923 -0.0624876 0.9959113 0.06523815
0.012346697 -0.116503425 -0.2830465 -0.014875322 -0.9998657 0.0068731615
0.17934537 0.048722796 -0.050368577 0.9968429 0.07529255 -0.02520399
-0.17879419 -0.11194275 -0.2666513 -0.9892856 -0.13911074 -0.04429716
-0.18105032 -0.1194966 -0.2320473 -0.97732335 -0.008776166 -0.21157049
0.18364555 -0.033907138 0.19562714 0.9995596 0.002470835 -0.02957376
-0.12358687 0.15564018 0.14246541 -0.020163259 0.99805087 -0.059058245
0.11850145 0.107165255 0.3741418 0.07719933 0.3072053 0.94850683
-0.16708308 -0.12030739 0.11313327 0.019642297 -0.9994391 0.027122535
0.06954987 0.15221275 0.25192827 0.043115053 0.9935261 0.10510431
-0.17997618 -0.19238484 0.27374884 -0.9062807 -0.41558838 0.077081434
0.17885911 -0.10016619 0.010235504 0.70691156 0.7064481 -0.034743685
-0.048513174 -0.116828345 -0.16772911 -0.0055056885 -0.99950355 0.03102097
0.18429942 -0.14912522 -0.22777228 0.9978802 0.06341814 0.01460216
-0.10222673 0.046621386 -0.33957312 -0.025503159 0.9605603 -0.2768998
-0.15612467 -0.030637322 -0.38994074 -0.54404914 -0.3085721 -0.7802524
0.13418886 0.034621634 0.3855857 -0.018002909 0.23486826 0.97186047
-0.12450439 -0.1991577 -0.26506555 0.11230312 -0.9913655 0.06769349
-0.16050524 0.0011367416 0.39030707 -0.07833246 0.057481267 0.99526876
-0.08674151 -0.09823701 -0.37973854 -0.19567797 -0.8226018 -0.533888
-0.026902221 -0.09662211 0.39598534 0.029357653 -0.057451464 0.9979166
-0.17597027 -0.056256976 -0.09383784 -0.99879414 -0.04870066 0.0062104585
-0.071145214 -0.032876242 -0.04627621 0.00041562069 0.97831243 -0.20713396
-0.18357053 -0.1711207 -0.33726755 -0.9939619 -0.08047427 -0.07458961
-0.1084943 -0.18560463 -0.3095474 0.9819673 -0.17793062 -0.06388271
0.08243823 0.019865567 -0.40873182 0.17483622 0.306706 -0.93560874
0.1755136 0.034856856 -0.21108374 0.99689054 0.078673065 -0.004441712
-0.055566587 0.061780613 -0.2681719 -0.00194888 0.9900915 -0.14041
-0.13419588 -0.119985655 0.121982485 0.0054580695 -0.99916214 0.040561993
-0.17599699 -0.109712616 0.2429119 -0.9960553 -0.06380371 0.06166831
-0.07858916 -0.11659153 -0.058651004 -0.0024413231 -0.99996597 0.007880896
0.020364255 0.086322725 -0.025207205 0.044040337 -0.12112038 -0.99166036
-0.12943633 0.08506703 -0.18968128 0.050754312 0.6645823 -0.74548936
-0.08114923 0.0618795 -0.26622447 -0.015496447 0.99274206 -0.11926053
-0.18319014 -0.036821302 0.19397889 -0.9997588 -0.019885033 -0.009320872
0.06942137 0.15745145 0.03021753 0.0011290179 0.9998827 0.015272257
-0.1831506 -0.110016555 -0.036666714 -0.99203813 0.12582882 0.0052450746
0.026281795 0.046952136 0.38613728 0.053113423 0.14858198 0.9874727
-0.05734442 -0.08184198 0.40374187 -0.04130436 -0.35557902 0.9337331
-0.00022198586 -0.021055372 0.39323008 -0.02867679 0.2559937 0.966253
0.17040361 0.048424795 -0.2561179 0.9421777 0.33218318 -0.044222087
0.15049975 0.092903726 0.377081 0.27845326 0.21460333 0.9361673
0.072868526 0.13255689 -0.16894898 0.1374934 0.5117643 -0.8480524
-0.039656926 -0.120258465 0.23962742 -0.075399674 -0.9938442 -0.0811699
-0.1236684 0.15643628 0.053847164 0.019548802 0.99933714 0.030710831
0.15569104 0.14032067 0.2820568 0.86731076 0.49760258 0.012797385
0.17994533 0.044273015 0.32473755 0.99591506 0.08455309 0.031684615
0.14419805 0.05749387 -0.2736968 0.108535685 0.97880757 -0.17365411
0.14716877 0.035962842 -0.361307 0.21577771 0.91790265 -0.33300862
-0.16925359 -0.19887656 -0.30557638 -0.021191008 -0.9870462 -0.15903047
