ply
format ascii 1.0
element vertex 686
property float x
property float y
property float z
property float nx
property float ny
property float nz
end_header
-0.04188462 -0.08766684 -0.22185253 0.009596376 0.99985385 -0.014150458
0.11341354 0.2062081 0.12512799 0.058609538 0.3890562 -0.91934764
0.068755515 -0.24042448 -0.17384799 -0.056300204 -0.93540126 0.349077
0.2844342 -0.23892088 0.053326495 0.99854404 -0.016531682 0.051347252
0.09165615 -0.04644945 0.16566558 0.0065484084 -0.40051937 0.9162649
0.028399125 -0.30854583 -0.23828685 0.0022506635 -0.9999965 0.0014266918
-0.0700752 0.040794358 0.21056436 -0.011027867 -0.39567202 0.91832566
-0.18976986 -0.18850385 0.10903503 0.85161793 -0.3330308 0.40476823
0.116778165 -0.22284986 -0.012310203 0.10808413 -0.97891116 -0.17335135
0.22342381 -0.3040487 0.19225916 0.013882379 -0.98890823 0.14787751
-0.13990286 0.30021736 0.23663847 0.014968277 0.9969116 0.077092715
0.14046893 0.023761438 0.044810142 -0.012106139 0.38420722 -0.92316747
0.18219532 -0.18563175 0.10594562 -0.978988 -0.19819966 0.04795153
-0.28326145 -0.27913636 0.10981945 -0.9992057 0.01637614 -0.036327615
0.28439423 -0.21342951 0.0755396 0.9986681 -0.047224004 0.020785267
0.19166715 -0.2646931 -0.054873172 -0.9968479 0.07903476 -0.0069056544
-0.10382163 -0.3064806 0.12732954 0.02314096 -0.99971384 -0.0060560056
-0.041631386 -0.30839568 -0.14201093 0.0039595948 -0.99998456 0.0038909311
-0.121278144 -0.3088827 -0.22814338 0.00044250395 -0.9999979 -0.0019683796
-0.045893256 -0.002087914 0.18541472 0.03479826 -0.5036004 0.8632356
0.15397023 0.00011230772 0.18773463 0.03006416 -0.45036328 0.8923391
0.110684656 0.109900974 0.083498746 0.017583797 0.36911333 -0.92921805
0.015635265 -0.2746578 -0.17953566 -0.0030188013 0.9941717 0.10776665
0.06542887 -0.28344667 0.1403668 0.024103345 0.9741962 -0.22441211
0.19398548 -0.0195922 -0.20713158 -0.992208 0.122451454 0.022997497
-0.2526241 -0.045347292 -0.2690519 -0.40400666 0.5223305 -0.7509657
0.25596452 -0.04019644 0.08138098 0.21074153 0.9775388 -0.0024313175
0.056250125 -0.14321193 -0.27652863 -0.016418751 -0.28717107 -0.9577386
-0.19278562 -0.24422203 -0.06931826 0.99783075 -0.05989786 0.027314886
0.13977902 -0.21472976 -0.043681834 0.066208266 -0.9917771 -0.109519824
-0.20311466 -0.26163104 -0.28336585 0.07410054 0.12973578 -0.9887759
0.0999667 -0.08682312 0.14704812 0.010449144 -0.43604922 0.8998621
-0.15623856 0.24894883 0.144418 -0.21489646 0.37810236 -0.90047663
-0.19070204 -0.065830395 -0.09297534 0.997772 0.06611366 0.008944565
0.028041575 -0.09012944 -0.111899324 -0.007124887 0.99986416 0.014860042
-0.14815477 -0.2755016 -0.19300267 -0.057248753 0.99466646 0.08579745
-0.10672009 0.09881751 0.07979324 -0.11314963 0.49640933 -0.86068285
-0.03474991 -0.24120447 -0.26723054 0.008327185 -0.09053535 -0.99585843
-0.19070704 -0.27471608 -0.039085403 0.98729753 0.1581068 -0.015675096
-0.28140706 -0.29807657 -0.045430817 -0.99999326 0.0021285866 -0.0029907024
0.052809745 -0.14778697 0.11604191 0.018323489 -0.26613176 0.9637625
-0.06344464 -0.30849117 -0.14891246 0.0039062176 -0.9999917 0.0011291411
0.037313487 -0.15278293 -0.27450538 -0.04140335 -0.013864634 -0.9990463
0.2888253 -0.2434334 -0.09933439 0.9999273 -0.0012511298 0.0119925365
0.021778272 0.27313322 0.28951776 -0.056286473 0.15161811 0.98683524
0.18515027 0.22170377 0.21507257 0.9401586 0.32998 -0.08494139
-0.28192663 -0.27580342 -0.049210846 -0.99964917 -0.022086974 0.014620419
0.1379061 0.016071783 0.1971708 -0.03627861 -0.5335626 0.84498215
0.21388601 -0.30529726 0.01567262 0.006301411 -0.99992555 0.010451493
0.13690993 -0.27942768 -0.27772522 0.016587459 0.3098018 -0.9506565
0.13921368 0.23030098 0.1404036 0.08603706 0.4411444 -0.89330244
-0.18978381 -0.20401785 0.073583 0.8354889 -0.53967696 -0.103474595
0.10448728 -0.13057244 0.121705554 -0.014856822 -0.5388612 0.8422635
-0.16505677 0.22814333 0.13725886 -0.20028801 0.4665543 -0.86151713
0.2813094 -0.07008221 0.13926727 0.8744056 0.22882167 0.4278498
-0.0882554 -0.2614973 -0.27216408 0.017812341 0.2377103 -0.97117275
-0.0811815 -0.11785828 -0.2815379 -0.010435086 -0.041473556 -0.9990851
0.047503382 -0.08973314 -0.26139656 0.0061812256 0.9916592 0.12873897
-0.0070635336 -0.30522648 0.15081964 0.005241143 -0.9999521 -0.008269867
-0.21209796 0.035315685 0.1692765 -0.9817042 0.05797112 -0.18137321
0.1114085 -0.08995245 -0.17941958 0.017902484 0.99979305 0.009656815
0.2883987 -0.083247006 -0.058084868 0.9994609 0.032117687 -0.006801751
0.17842908 0.17037472 0.26564214 0.46938282 -0.28575507 0.8354782
-0.19081356 0.23098359 0.19335519 -0.9725447 -0.01952925 0.23189498
-0.19854802 0.12685943 0.23965845 -0.8023405 -0.07641309 0.59195507
-0.2799189 -0.032161843 -0.17025945 -0.93504775 0.30906263 0.17368358
-0.118296474 -0.024985025 0.17233247 -0.03186057 -0.4977143 0.86675566
0.15905485 -0.14641948 -0.27734962 -0.027702373 -0.11805694 -0.99262035
-0.2601371 -0.028355226 0.14343293 0.27975535 0.4764445 0.8335092
-0.039304126 0.17436785 0.10878897 0.0054763625 0.37406245 -0.92738736
0.2882623 -0.1394364 -0.04184633 0.99994564 0.010116028 -0.0025023054
0.18702447 0.074082784 0.092249244 0.9233451 0.24779958 -0.29330745
0.020477781 -0.30487546 0.1423258 0.008032453 -0.99983835 -0.016087791
0.19298714 -0.020746984 -0.22141795 -0.9511371 0.17963196 0.2511385
0.28923234 -0.095633686 -0.2289387 0.9999649 0.008376781 -7.629127e-05
-0.1952466 -0.21309459 0.10325837 0.94102967 -0.32947382 0.076877944
0.10048368 0.27383515 0.29037905 0.034390766 0.20868604 0.97737783
-0.0729489 -0.27880377 0.18014103 0.026968088 0.71121556 0.70245653
-0.046419617 0.22862694 0.2854269 -0.011675258 -0.27545395 0.9612434
-0.11640395 0.2195896 0.2827399 -0.06726353 -0.07870682 0.994626
0.009133321 0.30066434 0.22821397 -0.0070643933 0.9999397 0.008407086
0.08478068 -0.30382654 -0.00019735144 0.015502501 -0.9980078 0.061157215
0.2604526 -0.22078654 0.1651973 0.5622172 0.4855326 0.669455
0.13364412 0.29758137 0.19676706 0.020136235 0.92541957 -0.3784087
0.005472815 -0.30856678 -0.19695641 -0.0023574189 -0.9999729 0.0069730775
0.07201824 -0.28799963 0.12232938 0.0079666125 0.974067 -0.2261195
0.22329973 -0.30884323 -0.222483 0.0020522962 -0.9999947 0.0025482043
-0.18386546 0.14329258 0.25875202 -0.64548117 -0.32591203 0.6907499
0.23457786 -0.30273473 0.1952128 0.03493967 -0.91521925 0.40143868
0.28612646 -0.11869706 0.12551138 0.9989179 -0.0050909203 0.046229824
0.18806411 0.20840186 0.18588388 0.99399143 0.028605161 0.10565406
0.030935535 0.23096058 0.13580489 0.010443811 0.52285016 -0.8523606
0.034895997 -0.09293566 -0.06206332 -0.020191558 0.99494284 0.0983921
0.28900766 -0.10374286 -0.13540575 0.99985546 0.01455478 0.008787792
-0.18706758 -0.28867415 -0.2835099 0.19153605 0.16076177 -0.9682301
0.091710664 0.01772387 0.039771833 0.037203006 0.32555875 -0.9447896
-0.04751985 -0.30715972 -0.04928276 0.014982449 -0.9998877 0.00027462735
0.2846738 -0.20189385 0.092900954 0.9999746 -0.007110415 -0.00050352723
-0.26470548 -0.3071023 0.03290633 -0.0810994 -0.9967051 -0.0013535577
0.22007486 -0.15381075 0.1685863 -0.1031767 0.65289 0.7503927
-0.28627527 -0.19552355 0.037926067 -0.99906725 -0.042814337 0.005617619
-0.20280015 -0.14843108 0.13200377 0.72181076 -0.023470744 0.69169235
-0.038621493 0.09197287 0.072227195 -0.00835502 0.48285237 -0.8756619
-0.016294284 0.118685625 0.08712186 -0.026284039 0.4869008 -0.8730617
0.19123894 -0.26050425 -0.02651438 -0.9990833 -0.014711233 -0.04020054
0.21437795 -0.3054044 0.10451928 -0.0022580954 -0.99990904 -0.013296825
-0.08811537 -0.2756206 -0.18469474 -0.00030295705 0.99272966 0.12036484
0.19239168 -0.2496773 0.113891825 -0.97889394 -0.11605844 -0.16821751
0.06944305 -0.21408798 -0.10064724 0.0033033888 -0.9999579 0.008552192
0.28733194 -0.2927198 -0.25236335 0.99674064 0.036897168 0.07174111
-0.28622434 -0.07111359 -0.15880433 -0.99898267 0.04499812 -0.0029571936
-0.14705575 -0.29788813 0.026232002 0.06273066 0.9877744 0.1427115
-0.04780428 -0.2509427 -0.20426679 -0.055818453 -0.82781583 0.5582161
0.25027624 -0.14472154 -0.28116223 -0.049828973 -0.04840572 -0.99758404
-0.23800483 -0.05757553 0.14863059 -0.058233943 0.099400885 0.993342
0.1188501 -0.3059004 -0.08389099 0.005110343 -0.99973565 0.022416864
0.28817472 -0.21505988 -0.06451634 0.9998653 -0.014310816 0.008040299
-0.19143873 -0.25908852 -0.12764712 0.99615157 0.014614863 0.08641998
-0.0348065 -0.21943225 -0.037525147 -0.008110744 -0.939957 -0.34119627
-0.09576443 -0.28383803 0.13843325 0.0011347225 0.9981902 -0.060125057
-0.014645142 -0.2908417 -0.04619235 -0.0040429938 0.9960963 -0.08818024
-0.07772989 0.22208269 0.12898515 -0.010839751 0.43733594 -0.89923286
-0.28654325 -0.086054616 -0.03695 -0.9968236 0.079641245 -7.6051605e-05
-0.11480543 -0.3064716 0.17351718 0.00014204848 -0.99574316 0.09217118
0.28742257 -0.26389194 -0.26850086 0.9855835 -0.09386499 -0.14076419
-0.069705196 -0.30623975 -0.012755059 0.009652226 -0.9977418 0.06646943
-0.28714648 -0.091867626 -0.0011507836 -0.9846148 0.16489612 0.05781766
-0.08555896 0.25506765 0.1474025 0.003941944 0.56069887 -0.8280104
-0.2882549 -0.14795944 0.025591636 -0.99989843 -0.010603782 0.009520518
-0.28096437 -0.043914173 -0.1361378 -0.88735646 0.4469481 0.11329582
-0.21096638 -0.017749498 -0.054172456 0.48617068 0.86699 0.10939138
0.13812204 0.07607931 0.22849047 -0.007751615 -0.462162 0.88676167
-0.11468393 -0.20389907 0.08095212 -0.0075504025 -0.94793713 0.31836808
0.109505445 0.21296053 0.2842094 -0.0035958905 -0.106116705 0.99434716
-0.28143364 -0.27778167 0.02583691 -0.9994497 -0.0330781 -0.0024781886
-0.28788462 -0.14353763 -0.097318806 -0.99979585 -0.017093983 -0.010770506
0.13734132 -0.2985568 0.055804774 -0.106019236 0.9889385 0.10373311
-0.07598877 -0.30853844 -0.17549627 0.001968371 -0.99999344 0.003036479
0.18940547 -0.22577345 0.04422881 -0.9984187 -0.05620361 0.0011084467
-0.14224784 -0.3083342 -0.101626 0.0064228373 -0.9998268 0.017468287
-0.06813201 -0.30522564 0.0016587181 0.0003347525 -0.9971972 0.07481718
0.16793643 0.01498562 0.043510944 0.19179238 0.40344796 -0.89467615
-0.2849746 -0.07071845 0.0011385323 -0.99200314 0.12576382 0.010641146
0.10195226 -0.2818694 -0.11399474 0.030255387 0.99215263 0.12131676
-0.07226886 -0.29324943 0.098603256 -0.027974123 0.9969071 -0.07344158
-0.18046808 -0.08476798 -0.25643483 0.7570582 0.6503832 0.062165964
-0.0025172364 -0.3046326 0.12276534 0.0065905317 -0.9998081 -0.018451963
-0.26381972 -0.043675847 0.011735827 -0.48755154 0.8626917 -0.13437435
0.07053385 -0.21447805 -0.061676774 0.0057958392 -0.99956876 -0.028788544
-0.19129099 -0.24961877 -0.12946683 0.99634665 0.011523906 0.08462014
-0.16020165 0.27827808 0.2838562 -0.20873307 0.3941795 0.89501566
0.11480952 0.2516453 0.28991386 0.012029408 -0.063283816 0.9979231
0.106718056 -0.30155328 0.011802414 0.055260245 -0.9582049 0.28069484
0.022054803 -0.12172627 0.12877277 0.022422291 -0.4879112 0.87260526
-0.1344362 -0.30671102 -0.009975381 0.00707407 -0.9991514 0.040576804
0.01392565 0.095241696 0.23652354 -0.0012053568 -0.5918272 0.80606395
-0.1798054 -0.085524045 -0.26480058 0.744647 0.6647522 0.060044665
0.1726911 -0.04133347 0.1687795 -0.09211438 -0.27292392 0.9576155
-0.16754085 -0.15882851 0.11104802 -0.31346896 -0.4481633 0.83718985
0.1464853 -0.09278151 -0.071601406 0.009480858 0.998935 0.045156017
0.19278586 0.06106746 0.13231085 0.99778706 0.061981063 -0.02407076
-0.120387964 0.28663504 0.1761353 0.07658785 0.75577956 -0.65033185
0.18796438 -0.23715714 0.13568829 -0.9812752 0.15865466 0.10921358
-0.24801183 -0.17347066 0.17233798 -0.078442276 0.49557358 0.8650165
-0.28660938 -0.14212553 -0.24619612 -0.9990783 -0.005320409 0.042593762
0.1273313 0.05880497 0.21922614 0.014738429 -0.4335188 0.901024
0.19178455 -0.03514493 -0.27443787 -0.6334213 0.28445718 -0.71962595
0.14525391 -0.08063618 0.15169612 -0.07584837 -0.5118725 0.8557065
-0.0066684433 0.07064436 0.05935368 0.0052993684 0.42155576 -0.906787
-0.19299264 -0.2568781 -0.10301551 0.9969777 0.052529357 0.057237677
0.11560384 -0.0883429 -0.214568 0.030783406 0.9994656 0.0109957075
-0.27414417 -0.05555944 -0.031953678 -0.6945007 0.69356924 -0.19139087
-0.08517898 -0.25552958 -0.2077069 -0.001881936 -0.5527551 0.8333416
-0.02140252 0.14779668 0.26725763 -0.0063888934 -0.49215633 0.8704834
0.28440395 -0.26278976 0.04125081 0.9992634 -0.030388366 0.023435483
-0.13905787 -0.21112312 0.050523393 -0.046777785 -0.9862084 0.15876006
-0.286591 -0.19100769 -0.053565 -0.9980789 -0.06096359 0.011041369
0.2597311 -0.30579656 0.11328715 0.005843947 -0.9999711 -0.0048597837
0.26201075 -0.30549762 0.13765797 0.060503993 -0.99815977 -0.004028523
0.18784437 -0.22613433 0.013398891 -0.96896034 -0.23322114 0.081998505
-0.20687976 -0.24510986 0.1522647 0.7644259 0.6013485 0.23245026
0.09829121 0.26871598 0.29120207 0.015369692 0.05651294 0.99828357
-0.18774171 0.22047086 0.26736566 -0.91839385 -0.11542284 0.3784577
0.28732848 -0.06813985 -0.09382607 0.9982137 0.05832154 0.012962035
-0.16346005 0.035458196 0.048069715 -0.13889876 0.44767052 -0.88334495
0.13529435 -0.048320517 0.16544746 -0.03674532 -0.36443704 0.9305028
0.26803795 -0.30681446 -0.11604437 0.13681008 -0.99048907 0.014646294
-0.20472565 -0.30791065 0.14308083 0.0056701573 -0.9989232 0.046047166
-0.17781639 -0.13614659 0.11607853 -0.056995854 -0.35531798 0.93300617
0.22386883 -0.25632626 -0.28059152 -0.023943601 0.06552145 -0.99756384
0.2808297 -0.30513644 -0.116503306 0.20669882 -0.97827786 0.015748339
-0.03974209 -0.30864847 -0.21146752 0.0023116898 -0.9999927 -0.003036477
0.09684415 -0.11283807 -0.28189662 -0.0004882194 0.015905274 -0.99987334
-0.1693698 0.13684903 0.10252717 -0.115892604 0.3408447 -0.93294895
0.19159003 -0.27120635 0.12288755 -0.9573798 -0.026046878 -0.28765512
-0.1918323 -0.02568272 -0.19176751 0.98151976 0.1912388 0.0068294224
0.28344208 -0.29898158 0.07559523 0.78972536 -0.61344 0.005024955
0.28970826 -0.10614691 -0.21555309 0.998762 0.047167487 -0.015803775
0.26297775 -0.046162117 0.14172369 0.34186637 0.5949677 0.7274206
0.17930338 -0.25151882 -0.18181778 -0.67173976 -0.66027945 0.3358523
-0.19284311 -0.26273483 -0.09602991 0.98976356 0.13141522 0.05566061
-0.12586558 -0.16968766 -0.273874 -0.0055617187 -0.002944888 -0.9999802
-0.2852686 -0.21380264 -0.049261607 -0.9996104 -0.027897453 -0.0008541593
-0.18791103 0.22154473 0.23089299 -0.9940552 0.10864895 -0.0070455726
-0.13556628 0.30052796 0.2276662 0.006712848 0.9998482 0.016080322
0.21275508 -0.022077281 -0.05720274 -0.45815733 0.88609576 -0.070186205
-0.037584636 0.2563219 0.2898359 -0.0049210154 -0.05519764 0.99846333
-0.28619882 -0.1890727 0.10682201 -0.99901 -0.03791104 -0.023277104
0.06564337 -0.048557956 0.16406855 -0.036298506 -0.40353838 0.91424245
0.11740208 -0.09284282 -0.016068822 0.00066437793 0.90709734 -0.42092034
-0.05138368 0.17929634 0.27830493 -0.012398084 -0.28596005 0.95816135
0.10790224 0.09949528 0.23970641 -0.036497645 -0.4495611 0.8925036
0.024315037 -0.21424805 -0.0702551 -0.0025856562 -0.99972606 -0.02326328
0.03991461 -0.29036996 -0.06970502 0.02421409 0.985037 0.17063344
0.05311633 -0.10820161 0.13510372 0.0064343903 -0.50326693 0.864107
0.1753184 -0.08539368 0.007754422 -0.4340486 0.7088327 -0.55601984
-0.18339187 -0.30502617 0.04797833 0.2560198 -0.9666712 0.0007670121
0.070907675 0.13078204 0.25976554 -0.011073194 -0.5324232 0.84640586
0.01796182 0.26169163 0.15269265 0.01432036 0.5695917 -0.82180303
-0.1507867 -0.21457544 0.024471885 -0.12904015 -0.98038197 0.14899604
-0.19292006 0.11359019 0.23895462 -0.37612888 -0.30591834 0.87460905
0.1865035 -0.07909191 -0.079664685 -0.96125174 0.275119 0.017454369
-0.28672493 -0.108473174 0.12532677 -0.99945235 0.00423962 0.03281893
0.18785866 -0.07067052 -0.03908561 -0.9842852 0.16516393 -0.062479038
-0.15805523 -0.093159385 -0.10708169 0.011275504 0.99993426 -0.0020826878
0.17964588 -0.2586939 -0.26551348 -0.15370531 0.9880076 0.014683829
-0.024734123 -0.29068235 -0.06314685 -0.00927408 0.9906865 0.13584644
0.17437956 0.26809615 0.2599167 0.9453871 0.32346058 0.040203765
0.059009876 -0.18358779 0.09869471 0.0007977529 -0.16409627 0.98644406
-0.07106037 -0.303806 0.025305726 -0.011109149 -0.9993812 0.033373196
-0.07426409 0.16948596 0.2754414 -0.0012395933 -0.31006864 0.95071334
-0.007699295 -0.28952232 0.112420164 -0.00971997 0.983796 -0.17902757
-0.20034555 0.13395543 0.15075171 -0.9805835 0.13575491 -0.14151548
0.08125896 -0.27734786 -0.14504357 0.0036042077 0.99664706 0.081741
0.002251774 -0.089573555 -0.18556526 0.00017522393 0.9985631 0.05358805
-0.17284013 0.2525724 0.2851046 -0.23038773 -0.05165857 0.9717268
-0.058191374 -0.20612471 0.0775894 -0.045754056 -0.82752526 0.559561
0.28808883 -0.20702839 -0.014971743 0.9985738 -0.048255663 0.022840304
0.08810327 0.14096703 0.09634905 0.038082268 0.36237627 -0.93125355
0.024549725 -0.27545214 -0.17260958 0.0062744725 0.9956077 0.09341295
0.18113251 -0.28931224 -0.015841078 -0.5316874 0.84633535 0.032013934
0.006395173 -0.30486083 0.13475122 0.006270031 -0.9997877 -0.019626265
0.20295149 -0.23730686 0.17627434 -0.14004204 0.47752735 0.8673845
-0.16515285 0.08547287 0.07584134 -0.13602665 0.5507285 -0.82352585
-0.16242166 -0.10232396 0.13226369 -0.092414774 -0.4425429 0.8919727
0.21213414 -0.30882743 -0.2579829 -0.004813309 -0.9998257 -0.018040374
-0.06124795 0.04443098 0.21268299 0.00724424 -0.52056855 0.85378915
-0.22971696 -0.018140038 -0.004453381 -0.1667171 0.9847654 -0.04942159
0.28199506 -0.27501792 0.099012725 0.9972082 0.06835112 0.03006719
0.15340729 0.023191458 0.045055434 0.08284593 0.3781966 -0.9220108
0.2891158 -0.21926214 -0.24108817 0.9992183 -0.018540183 -0.034915313
0.0473297 -0.30809313 -0.1260264 0.0031576864 -0.99972045 0.023430947
0.28831705 -0.118772924 -0.041481398 0.99955714 -0.024525266 -0.016853495
0.2854225 -0.27183908 -0.004082592 0.9996199 0.016961323 0.02173551
-0.13931304 0.0766712 0.06734559 -0.028845817 0.5633014 -0.82574785
-0.2622179 -0.26309848 0.1838671 0.022065796 0.10170905 0.9945695
-0.28430933 -0.24351771 0.08618225 -0.99773383 -0.06715399 -0.0041866577
-0.028415076 -0.20068999 -0.2748037 0.014420905 0.025737997 -0.9995647
-0.21360016 0.0072010863 0.15314099 -0.98883164 0.13012214 0.07266561
-0.13146453 -0.30880067 -0.2609856 -0.0011551173 -0.9960759 -0.088495664
0.1286525 -0.21364637 -0.11097425 -0.0023878329 -0.9999298 0.011603494
0.090416625 0.05550525 0.21748146 0.0086838575 -0.4961685 0.86818284
0.13361512 -0.27826506 0.15787621 -0.01986066 0.95951957 -0.28094086
0.15850875 -0.19379656 0.08859524 0.14722925 -0.8064369 0.57269806
-0.26832426 -0.17818657 0.17400318 -0.06400927 0.12935786 0.98952985
0.14900705 -0.21273121 -0.27317482 0.010098375 -0.14078812 -0.98998827
0.13876809 0.24905762 0.14972056 0.15068695 0.43721744 -0.88664216
0.24875072 -0.3057526 -0.27559167 -0.027155131 -0.9084424 -0.4171272
-0.28272045 -0.26693904 -0.042322766 -0.9879968 -0.15056036 0.034553356
-0.28262097 -0.26292074 -0.013797674 -0.984995 -0.16967927 0.03152507
-0.06612749 -0.2851218 -0.09870686 0.0149325095 0.9737482 0.22713758
-0.13093048 0.05495258 0.21550922 -0.054528706 -0.42882708 0.9017394
0.17787449 -0.2124472 -0.083670825 0.021629313 -0.99894196 0.040583543
0.07082716 -0.06636591 0.15687281 -0.028555674 -0.43641743 0.89929104
-0.14610462 -0.25449958 -0.207346 -0.019196432 -0.5433845 0.8392644
0.007128152 -0.23939817 -0.17022942 0.003726646 -0.94297093 0.3328542
0.07311015 0.07460812 0.061777882 0.049432818 0.506426 -0.86086535
-0.28506485 -0.24127193 -0.17719206 -0.9995631 -0.029230691 -0.004377359
-0.10426561 0.19420408 0.1182633 -0.078510165 0.35145095 -0.9329086
0.2770805 -0.20618011 0.14702688 0.9179057 -0.21037206 0.33644122
0.18724433 -0.07099864 -0.02921107 -0.97492653 0.22080742 -0.027610224
0.2865436 -0.050635356 -0.12680817 0.9855137 0.16508438 0.038857535
-0.25947964 -0.21536857 0.17521895 0.39345166 0.14700605 0.9075159
-0.19040832 -0.30720294 0.08694594 0.039121106 -0.99915856 -0.012318728
0.17492679 0.259436 0.2760587 0.9847736 0.09181163 0.14761987
-0.14160019 -0.09312877 -0.0914697 -0.022412257 0.99919033 0.03341256
-0.19270545 -0.22649385 0.010610476 0.98498863 -0.15951808 0.065965496
-0.2877911 -0.10981432 -0.23460005 -0.9997092 0.015589948 -0.018396748
-0.09075642 0.011577059 0.03780443 0.0019324926 0.38133052 -0.92443675
0.07172335 -0.08811404 -0.22044586 -0.02281516 0.9994748 -0.02301342
0.13288389 -0.20370866 -0.27513897 0.041007604 -0.18957712 -0.9810091
-0.19051065 0.0141019765 0.19468006 -0.028645778 -0.54012436 0.84109753
-0.18487442 0.050578073 0.21241882 -0.046798702 -0.44422773 0.89469075
-0.046704523 -0.08815111 -0.25806606 0.019800361 0.99626607 0.08403563
-0.10331131 -0.21622612 -0.13238056 -0.011283395 -0.9500975 0.31174898
-0.0068615125 -0.08571093 0.14842568 0.014176915 -0.40030912 0.9162705
0.21640937 -0.076396994 -0.2838888 0.03244266 -0.095210165 -0.9949284
0.040781982 -0.28994155 -0.07230046 0.024197998 0.9843824 0.17437279
-0.15559247 0.26718363 0.15676133 -0.06993427 0.62615937 -0.77655244
-0.14884552 -0.2979774 0.19482164 -0.029842217 -0.01993039 0.99935585
-0.17341144 -0.029166725 0.16669285 0.0020749664 -0.4900379 0.8716987
-0.12058766 -0.30883434 -0.19338669 0.0020293193 -0.99995095 0.009688856
-0.046169676 -0.2906633 -0.02017347 -0.009115463 0.9989816 0.04419018
0.15480119 -0.055863507 0.022086855 0.23413098 0.07020674 -0.9696668
-0.067941695 -0.2820384 0.14379895 -0.011893185 0.9587107 -0.28413448
-0.00020415732 -0.25104204 -0.20023908 -0.04015773 -0.67471397 0.73698604
-0.18811487 -0.28369054 0.122977726 0.50770795 0.7812437 -0.36316785
0.17362806 -0.0958868 0.1441507 0.044456884 -0.5187441 0.8537729
-0.21395992 -0.035876952 0.15148367 -0.48347634 -0.048350587 0.87402105
0.01862253 -0.3018533 0.047578525 0.0826419 -0.93219006 0.35240892
0.253708 -0.03920264 0.086255886 0.36276332 0.929382 -0.06820469
0.19056357 -0.20311517 0.13443561 -0.8519987 -0.0031721143 0.52353436
0.017182862 -0.2737539 0.16825762 0.012296256 0.97148573 -0.2367789
-0.077099964 -0.29103497 -0.058132403 0.031539965 0.98643494 0.16109446
-0.020820538 -0.30831742 -0.1604602 0.0038222778 -0.9999872 0.0033034855
-0.022639029 -0.04840478 0.16248383 -0.00052509684 -0.2936604 0.95590967
0.23758712 -0.30580512 0.12554465 -0.017780652 -0.9998051 0.008581396
0.110991254 -0.28181425 -0.116353326 0.026358623 0.9888029 0.14688104
0.015551536 -0.2819785 0.1414922 0.012600543 0.9807473 -0.19487444
-0.05179383 -0.30722672 -0.046948183 0.013388309 -0.99990445 -0.0034405282
0.003976466 -0.02842463 0.024828214 -0.002466467 0.27248445 -0.9621571
-0.26784405 -0.30837846 -0.16216633 -0.12390547 -0.99227333 0.0064121666
0.19140777 -0.23086241 -0.09336836 -0.99922454 -0.038407084 0.008675518
-0.28756014 -0.11815988 -0.24529864 -0.9986172 -0.04551498 -0.02630787
-0.21215297 -0.010543547 -0.21470039 -0.061710436 0.9980886 -0.0033048284
-0.23606323 -0.11677184 0.14739986 0.10472679 0.043706913 0.9935401
-0.15092707 -0.09768992 -0.045808673 -0.04243048 0.993293 0.10755774
0.020827625 -0.30578896 -0.022557106 0.020615233 -0.9985513 0.049702063
-0.09744351 -0.29424 0.09482392 -0.0056826808 0.98005307 -0.19865456
-0.16959836 -0.2888701 -0.06695183 -0.045411274 0.99801254 0.043690458
-0.14651403 -0.097496495 -0.046199024 -0.031522136 0.99390656 0.105622284
-0.18311967 0.0010200583 0.18572477 -0.050919253 -0.5848307 0.8095556
-0.09000599 0.13929243 0.2625403 -0.035254445 -0.4861205 0.8731804
-0.2831725 -0.26376942 -0.041446604 -0.98817575 -0.14960401 0.033575986
-0.21871544 -0.3078679 0.0371077 -0.013288944 -0.99989 0.006575815
0.088565715 0.2682674 0.2913174 0.015680349 0.021888424 0.9996374
-0.26121917 -0.30866495 -0.08030829 -0.028118389 -0.99960226 0.0021430072
0.14928539 0.20962815 0.2832962 0.105174296 -0.12515031 0.9865474
-0.020299934 0.13421935 0.26074636 -0.010369711 -0.4785071 0.87802243
-0.17671226 -0.28945974 -0.065867014 -0.09613035 0.9946319 0.038291264
0.23270586 -0.0068932897 -0.18963698 0.01842218 0.9977819 -0.0639676
-0.06103822 -0.089979984 -0.18300997 -0.019470219 0.9980447 0.05939292
0.090749994 0.11093276 0.08307325 0.07925768 0.46956185 -0.8793349
0.28558955 -0.2926695 0.033119995 0.9992377 -0.039017476 0.0012807612
0.18764213 -0.09529692 0.15408805 -0.8561112 -0.3370964 0.39171374
0.19508886 -0.037138525 -0.27740145 -0.41575158 0.33381858 -0.8459999
-0.28522554 -0.22873618 -0.19780414 -0.99959266 -0.025342152 -0.013124839
0.22660023 -0.06396272 0.15970372 0.32708135 0.29218188 0.8986921
0.21460822 -0.10556487 -0.2818343 -0.050189767 -0.04674179 -0.9976453
0.014861502 -0.022729924 0.026354901 -0.0025253412 0.22852853 -0.9735339
0.1727205 0.21066457 0.1452756 0.8173884 0.3860129 -0.42763317
-0.053149268 -0.09022557 -0.14755808 -0.01000854 0.9998776 -0.012030083
0.18603468 -0.032739226 0.026764696 -0.23161809 0.5715681 -0.7871868
0.13593931 -0.15595232 0.10863386 -0.044628352 -0.6897204 0.7226992
0.1541098 -0.30416602 0.10712188 -0.010013372 -0.9995984 -0.026509125
0.05952025 -0.20504484 0.07707292 0.008666628 -0.94107705 0.33808103
-0.0120860115 0.045748625 0.049019497 -0.008380677 0.38221017 -0.9240374
-0.24540631 -0.3090167 -0.101312 -0.011221928 -0.99991876 0.0060343607
0.16691308 0.2252284 0.14905393 0.72258115 0.38076198 -0.5769721
-0.07373324 -0.28614432 -0.09410933 -0.00011833133 0.96937025 0.24560407
-0.262601 -0.043650545 -0.0009790815 -0.52157074 0.845819 -0.11204495
0.063752756 -0.28944984 0.11307664 0.00714481 0.9920387 -0.1257305
0.050403185 -0.27741125 -0.14241989 0.0023280098 0.9939313 0.10997762
-0.09169004 -0.29459447 0.018429361 -0.040828098 0.9961691 0.0773317
0.08170301 -0.21484713 0.041512795 0.06283098 -0.95228744 0.2986651
0.08598431 -0.25121766 -0.267557 0.007005336 -0.12872612 -0.9916554
0.25135323 -0.018039193 -0.114189744 0.59124714 0.7903501 0.16054143
-0.14188279 0.113798566 0.24624825 -0.019212369 -0.5018044 0.86476773
0.10311317 0.22072327 0.13140284 0.056677546 0.47813487 -0.8764558
-0.25744823 -0.038796503 -0.04529281 -0.827986 0.5412243 0.14668147
0.061274 -0.27424777 -0.2763569 -0.016056398 0.3204198 -0.94713956
0.2853088 -0.16722786 0.10139879 0.9988387 -0.04461061 -0.018197836
-0.20485426 0.06484552 0.21183583 -0.7538827 -0.2938006 0.5876581
0.07090731 -0.30845597 -0.18139108 0.00704157 -0.9999487 0.007285698
0.18778007 0.18451317 0.18647172 0.9973865 -0.01873448 0.0697787
0.13093364 -0.25778142 -0.20444785 0.13470083 -0.0034094779 0.9908805
-0.055315603 -0.30853525 -0.18300354 0.0012817145 -0.99998146 0.0059508174
0.13870022 -0.24430054 -0.26672095 0.05386659 -0.09369389 -0.9941428
-0.15321471 -0.3001593 0.04735674 -0.20359986 0.24120112 -0.9488779
0.11797746 -0.10651644 -0.28141147 0.002856262 0.092798136 -0.9956808
-0.034473825 -0.22278808 0.009807947 0.0015360906 -0.9773713 0.21152565
0.0871259 -0.21564022 0.03783102 0.07329142 -0.95038116 0.30233073
-0.048093762 0.08280729 0.23128444 0.0012884374 -0.34605998 0.9382115
0.23508763 -0.039142527 0.051295113 0.29788783 0.9072158 0.29702264
-0.28495112 -0.2131807 -0.2600592 -0.99812496 -0.06093594 0.005772237
0.27276167 -0.3046077 0.16560645 0.2045335 -0.9788453 -0.005287342
-0.18860276 -0.08573107 -0.06515388 0.986132 0.16190013 0.036496937
-0.2656119 -0.26819167 -0.27674276 -0.2933521 0.0034863823 -0.9559981
-0.010803424 -0.095320456 -0.048021626 -0.006435374 0.9935186 0.113486946
0.19832538 -0.3054003 -0.0034894182 -0.013235584 -0.99989307 0.0062172916
0.2499424 -0.24384177 0.17579353 -0.020460576 0.32264754 0.946298
-0.24058694 -0.009797493 -0.17849019 -0.03345596 0.9988414 -0.034591425
-0.28498805 -0.23120946 -0.021860816 -0.9999897 -0.004547072 -6.1034527e-05
0.16084218 -0.30525666 -0.052159972 -0.027249023 -0.999324 0.024679655
-0.14300084 -0.29355735 -2.4875626e-05 0.008538063 0.99387294 0.11019863
0.03423538 0.25358188 0.14728086 0.011826091 0.57078934 -0.82101136
-0.10156689 -0.2778427 -0.15962565 -0.010696846 0.9979054 0.06380041
0.115268745 -0.30766734 -0.26836663 -0.014579039 -0.9911327 -0.13207339
-0.28676113 -0.07778546 -0.14819555 -0.99406785 0.10865033 -0.004922104
0.04568154 -0.017775394 0.027134368 -0.0008287476 0.15758258 -0.98750544
0.16288784 0.28890425 0.18830802 0.38423958 0.5751461 -0.72219586
-0.16159464 -0.09822309 -0.047521386 -0.07485464 0.9849762 0.1556234
0.08786871 0.13456786 0.26163048 -0.022714538 -0.37459186 0.92691153
0.12561834 0.17209968 0.11210962 0.08356145 0.35937664 -0.9294439
0.10060261 0.30069038 0.24860162 -0.008765072 0.99210316 0.12511799
0.10493736 -0.1419775 -0.27736422 -0.022201506 -0.3545109 -0.9347882
-0.14957137 -0.3088759 -0.13966367 0.0012054251 -0.999984 0.0055235936
-0.19380012 -0.30748942 0.041291855 0.04991851 -0.998614 0.016677598
-0.28490052 -0.24846627 -0.098515175 -0.999705 -0.024155166 0.0025322118
-0.28831577 -0.10507171 -0.092089005 -0.9999704 0.00733926 -0.002311638
-0.1941189 -0.2742471 0.021053541 0.9890146 -0.063058436 0.13369264
0.039297983 -0.21412346 -0.07404198 -0.004339094 -0.999532 -0.030282145
0.07468144 0.29371464 0.1903953 0.0011751731 0.83713204 -0.54699963
0.03184435 -0.049807526 0.02053104 0.009529783 0.087911114 -0.9960827
-0.28838867 -0.14422756 -0.009984883 -0.9998382 -0.017987201 0.00027461376
0.203038 -0.0051717223 -0.18726349 -0.22984317 0.97118 -0.06309944
-0.07214795 0.1192119 0.25223756 -0.0054813945 -0.4780607 0.8783097
-0.07228222 -0.30543923 0.11877607 0.016183974 -0.99918324 -0.0370257
-0.14256462 -0.053286795 0.15864782 -0.03316692 -0.4916748 0.87014705
0.17939177 -0.27558336 -0.15645294 -0.20717138 0.9691412 0.13358669
-0.19506648 0.06797515 0.10124205 -0.91787857 0.16694812 -0.36003792
0.20439504 -0.010154117 -0.21523547 -0.16995324 0.9621077 -0.21322432
-0.28455237 -0.2559665 -0.15642354 -0.99456537 -0.10280129 -0.016480988
-0.07343361 -0.022544608 0.1750507 -0.029750273 -0.48117322 0.87612057
0.13673393 -0.30249333 0.004760536 0.020108473 -0.9591121 0.28231123
-0.17905998 -0.29324225 0.091651365 0.30444446 0.94523746 -0.117642656
0.040770825 -0.30423868 0.12618558 0.011296259 -0.99974567 -0.019518655
-0.14035834 -0.21624102 -0.029394059 -0.05630016 -0.97843736 -0.19872269
0.014035325 -0.09223986 -0.007586277 -0.019111304 0.8808603 -0.47299036
0.04122496 -0.28107563 -0.11551962 0.0010953661 0.9901505 0.14000289
0.06620245 -0.2765916 -0.15429054 0.007957431 0.99808264 0.06138263
-0.119245075 -0.2713295 0.17697744 0.042683505 0.7531257 0.6564905
-0.06788551 -0.30732352 -0.04280297 0.0045470716 -0.9999895 0.00064086245
-0.0026092862 -0.30729333 -0.08293647 -0.0007246401 -0.9997897 0.020495873
0.19006264 -0.23576042 0.037450068 -0.9957493 -0.08485809 0.03581209
0.047326185 -0.29230177 -0.0548876 0.012130351 0.9987119 0.04926812
0.18863072 -0.15329574 0.13905145 -0.6778726 -0.028692912 0.73461926
-0.07060704 -0.30485943 0.10521831 0.016089344 -0.9980419 -0.060443547
0.07672094 -0.30604723 -0.06923954 0.023275828 -0.9989553 0.03932655
-0.10223419 0.22225308 0.28379625 -0.030644711 -0.11623177 0.9927493
0.15240863 0.08074898 0.23099388 0.0045467834 -0.43537927 0.90023565
0.17254966 -0.30598027 -0.0713288 -0.054461252 -0.99809074 0.029134331
0.2874627 -0.0861946 -0.27019033 0.91986 0.06234712 -0.38726008
-0.21797949 -0.30863836 -0.26448777 -0.014120875 -0.99937975 -0.032259945
-0.04994663 0.11284363 0.24803403 0.0015611872 -0.56216466 0.82702386
-0.039522596 0.06346484 0.05600606 0.0025435814 0.38961762 -0.9209732
-0.09060693 -0.20943397 0.06666577 -0.034926333 -0.96032804 0.27667707
0.18970206 -0.3049418 0.18355374 0.0063407198 -0.9989072 0.046305545
-0.19391355 0.20672134 0.18484789 -0.98701656 0.03262143 0.15727112
-0.28825963 -0.14599118 0.027190037 -0.99986494 -0.012586801 0.010565285
-0.15847504 -0.26153922 -0.2091299 0.11666469 -0.16945527 0.9786083
-0.28727132 -0.12057332 -0.25416845 -0.999481 -0.02944943 0.013054744
-0.28774792 -0.13212264 -0.1250793 -0.9997794 -0.0054614414 -0.020282086
0.040185615 -0.21705298 -0.13153574 0.010832253 -0.9125542 0.40881228
-0.27012658 -0.20051003 -0.28336343 -0.035606377 -0.036040694 -0.9987158
0.08586533 -0.30855733 -0.2458324 2.2887121e-05 -0.99995357 0.009635478
0.18228112 -0.27153873 0.14888301 -0.84651566 0.47735333 -0.23568
-0.074939005 -0.21133283 0.059379257 -0.030119771 -0.99794203 0.05660781
0.28963852 -0.13420577 -0.19777851 0.99949324 -0.018209763 0.026109809
-0.018807858 -0.30861825 -0.20843038 0.00059508975 -0.9999949 0.0031432945
0.2886326 -0.08164871 -0.14897324 0.99973106 0.023187121 0.00053391396
-0.118372984 0.15989581 0.2719287 0.021905718 -0.34174493 0.9395374
-0.13155128 -0.21906663 0.006910228 -0.08498534 -0.9897111 0.11510587
-0.18436646 0.21427082 0.27130735 -0.76396334 -0.012053499 0.6451471
-0.19259769 -0.054798882 0.01597913 0.98318154 0.17860821 -0.038120486
-0.11719118 0.23913841 0.13755792 0.019417567 0.5102097 -0.85983086
-0.20175314 -0.3090202 -0.2547738 -0.004562315 -0.99998623 -0.0025787
-0.08751172 -0.21723984 -0.036949966 -0.06195982 -0.94060665 -0.33379653
0.1907973 -0.053191207 -0.13829497 -0.99766153 0.054026805 -0.041863546
-0.17487282 -0.30773523 0.13934048 0.014677258 -0.99988437 -0.003959198
-0.19828191 -0.02093549 0.16790627 -0.3386693 -0.5905364 0.73250926
-0.19405402 -0.30896047 -0.2276437 0.018062385 -0.99977744 -0.010899979
0.0024810308 -0.09044681 -0.10377907 -0.0067509757 0.9998462 0.016187085
0.0803183 -0.25273788 -0.267652 -0.0021237824 0.491817 -0.870696
0.061109502 -0.08962606 -0.15896013 0.0025253154 0.9999944 -0.0021972533
-0.19056003 -0.08231061 -0.029984832 0.9988258 0.04074647 0.02620668
-0.02371631 -0.3081415 -0.122089535 0.0029134778 -0.9996738 0.025374714
-0.2850291 -0.24032058 -0.18866147 -0.99956906 -0.0289487 -0.004865456
-0.1328544 0.12123665 0.09244543 0.05639449 0.37571102 -0.9250194
0.15410854 -0.21353891 0.036853783 0.011441748 -0.9763625 0.21583636
0.24104437 -0.30813888 -0.13861176 0.025221992 -0.99966645 0.0055599734
0.2871668 -0.29561 -0.05711107 0.9589638 -0.28086632 0.038761828
-0.13096179 0.04260822 0.20932439 -0.06793328 -0.46928167 0.8804316
0.17435333 -0.26073483 0.17714632 -0.35688743 0.9125298 0.19980162
-0.23819269 -0.30881605 -0.06115309 -0.0012587771 -0.999942 0.010695791
0.14877138 -0.21935691 -0.1346843 -0.044031683 -0.9190001 0.3917908
-0.13300063 0.052255735 0.21405941 -0.052607544 -0.49029166 0.86996925
0.23404394 -0.109508276 -0.2820626 -0.08239247 -0.035318658 -0.99597394
0.2887532 -0.25355095 -0.10036906 0.99960446 -0.022650339 0.016671259
-0.15647851 0.08785934 0.076381095 -0.08498954 0.5948239 -0.79935056
-0.21701549 -0.011922976 0.1433184 -0.84816325 0.35951504 0.38906047
-0.18282196 -0.2821334 -0.13147573 0.5758701 0.8030945 0.1530127
0.18459521 -0.08032664 -0.022169255 -0.9028298 0.42868438 -0.033586107
-0.24346983 -0.16242798 -0.28441846 0.016385619 -0.003837042 -0.99985844
0.026493024 -0.16090892 0.11170178 0.018212747 -0.4061213 0.91363764
-0.18954314 -0.28237697 -0.0077860546 0.8802939 0.46307436 0.103173524
0.14624254 -0.21377906 -0.1012318 -0.04126976 -0.99913377 0.0053435727
0.19025777 0.081020504 0.11302615 0.99095803 0.101385094 -0.0878822
-0.106588244 0.008422074 0.036553103 0.0031731308 0.31356037 -0.94956297
0.16325451 0.2950018 0.26078224 0.37978902 0.877418 0.2930835
0.16587374 -0.21666794 0.00764421 0.14318006 -0.9664193 0.2133852
-0.2573609 -0.10415125 -0.2848839 0.021585736 0.006224015 -0.99974763
0.28291512 -0.0684014 0.10458677 0.9462331 0.3234854 0.00027432907
-0.25031328 -0.034043517 0.06459532 0.23512249 0.9699422 -0.06268601
-0.18298694 -0.09672181 0.010264469 -0.2531108 0.8335404 -0.49106562
-0.15364775 -0.29757792 0.025267515 -0.0143977385 0.9803327 0.19682643
-0.28754687 -0.12741716 -0.26444378 -0.99623686 -0.03957676 -0.07710894
-0.28584275 -0.1875686 -0.16305077 -0.99980384 -0.019756256 -0.001418789
0.28549272 -0.08274474 0.084553994 0.99561805 0.08958679 0.02681375
-0.16665606 -0.10048249 -0.03641223 -0.045393832 0.98949945 0.13722329
0.1514437 0.06338461 0.06338836 0.04031833 0.46403885 -0.8848968
-0.20187126 -0.30894396 -0.09992022 0.01056598 -0.9999308 0.0051723714
0.068000406 -0.263562 -0.2015199 -0.062282737 0.24966913 0.9663261
0.24854736 -0.24375752 -0.28084815 -0.0748269 0.023426192 -0.99692136
-0.28664932 -0.12878376 0.118890874 -0.9996674 -0.01914341 -0.017282458
-0.1602151 -0.2679111 0.17125136 -0.017464215 0.98243326 0.18579525
-0.107639134 -0.22033797 -0.14202163 -0.01373432 -0.8807166 0.47344434
-0.0032121425 -0.2989307 0.19560672 -0.008560189 -0.68084586 0.7323767
0.01383022 -0.08956104 -0.27501783 0.0250562 0.9815201 -0.18971123
0.16314736 -0.3051939 0.16645922 -0.0072248164 -0.99996954 -0.0029524858
-0.20443851 -0.022833452 -0.045669604 0.69853044 0.7138559 0.049648367
-0.061274726 0.2277976 0.13185364 0.029454453 0.44293872 -0.8960679
-0.14382379 -0.24082844 -0.16801925 -0.036200337 -0.95297253 0.30088666
-0.107922755 0.16607824 0.2739617 0.0085086515 -0.3072988 0.95157504
-0.0935809 -0.13538359 -0.27698287 -0.048487566 -0.42111698 -0.9057093
0.14766206 -0.10035152 0.14059363 -0.077317305 -0.45446596 0.88740224
0.04246929 -0.13298199 -0.2804012 -0.0042131846 -0.21136019 -0.9773992
0.18936653 -0.022550184 0.03242002 0.2531779 0.5602943 -0.7886515
-0.12267383 0.17516495 0.11233135 -0.015681477 0.28406584 -0.9586765
0.0048246896 -0.28004003 -0.12385791 -0.0074851005 0.98899907 0.14773265
0.06143853 0.06071437 0.0550251 -0.010416265 0.42706826 -0.9041594
0.14789906 -0.2986995 0.060912594 -0.068694 0.9964432 -0.0488065
-0.28729182 -0.091783546 -0.0038355945 -0.99123627 0.11828967 0.058806255
-0.21946006 -0.3092788 -0.18296039 -0.010894129 -0.99994063 7.628942e-05
0.074872784 -0.27488223 -0.18313923 0.02299556 0.9973772 0.068629034
0.060696207 -0.09247892 -0.06365296 -0.0021433558 0.9962196 0.086843915
0.16181009 -0.2108915 0.04585365 0.09760888 -0.9812695 0.16608034
0.26472285 -0.30551377 0.104218826 0.07040167 -0.99748 -0.008789744
-0.27899545 -0.0585369 -0.06253492 -0.70943063 0.68798816 0.15290667
-0.28633702 -0.09354496 0.112630524 -0.99713 -0.008756231 -0.07520012
0.17284323 -0.29208997 0.08850381 -0.30719897 0.9495386 -0.06328712
-0.13201593 -0.09449873 -0.07088265 -0.026725905 0.9917944 0.12501852
-0.18253067 -0.016560178 0.03154359 -0.16269001 0.29685077 -0.9409631
0.119486034 -0.21876167 0.015941998 0.07122329 -0.98349965 0.16630022
0.17531262 -0.30519357 0.17566507 -0.0027455224 -0.99961424 0.02763826
0.2859679 -0.1970233 0.02894511 0.99818 -0.030492496 0.052029155
0.14832893 0.074173994 0.06903547 0.055599224 0.49146897 -0.8691185
-0.0010526982 -0.19025652 0.096868776 0.009156038 -0.4309466 0.902331
0.2260458 -0.2770084 0.18808511 -0.06559732 0.47634652 0.8768073
0.28138092 -0.028092831 -0.13235442 0.85360503 0.51292366 0.09092738
-0.14460942 0.14506556 0.1024375 -0.1368541 0.39607057 -0.9079642
-0.12949342 0.12527116 0.09418557 0.033066858 0.35125685 -0.935695
0.18549228 -0.2856442 0.10576393 -0.5625076 0.8228952 -0.08017879
0.11921758 -0.27791676 0.1844839 -0.04878204 0.6263675 0.77800006
0.08109726 0.09664165 0.0743302 0.11402834 0.4570959 -0.8820776
-0.11505213 -0.09149246 -0.16128452 -0.0312652 0.9995102 -0.0013421158
-0.2870425 -0.15718111 0.12520586 -0.9983022 0.05763741 -0.008404731
0.17606546 0.12035287 0.24608687 0.4435172 -0.3609101 0.8203879
-0.10503748 -0.20377898 0.08137926 0.0013979384 -0.94938123 0.31412327
-0.15338919 -0.09047724 -0.0004991214 -0.11654176 0.8083485 -0.5770535
-0.13048391 0.0729065 0.06413793 -0.06605075 0.58415246 -0.8089519
0.05130929 -0.15483639 0.1131742 0.04368867 -0.3517637 0.9350688
-0.07453124 -0.06923734 0.015745316 0.0021206196 0.40498257 -0.91432196
0.19391933 -0.26809892 0.1090823 -0.9962801 -0.020051474 -0.08380878
-0.065558806 -0.03455681 0.023573477 -0.021384869 0.15955824 -0.9869569
-0.08030175 -0.28926942 -0.07299293 0.01387936 0.9951835 0.09704163
0.22554095 -0.08234454 0.16137591 0.26162586 -0.049418874 0.96390337
0.27450767 -0.3071332 -0.1879296 0.01457731 -0.9993081 0.034217034
-0.00087498873 -0.1564188 0.114276774 0.035009135 -0.36002082 0.93228716
-0.22683784 -0.09893551 0.14637068 0.08980204 -0.03549315 0.995327
-0.010927986 0.2857828 0.283101 -0.035087284 0.65568304 0.75422055
0.28842187 -0.12256571 -0.10201646 0.9998741 -0.011869844 0.010527239
0.16654119 -0.05602823 0.16435589 -0.026905214 -0.24836719 0.96829224
0.17526749 0.14742723 0.116734445 0.72975755 0.28860253 -0.61980844
-0.102812044 -0.30779648 -0.07252189 0.0065687 -0.99996823 0.004516458
-0.1862698 -0.13957725 0.115791395 0.62801206 -0.26589945 0.7313674
-0.09605696 -0.2714064 0.16439079 0.050070614 0.8277718 -0.5588262
0.28941345 -0.08593064 0.017266983 0.99935454 0.03467609 -0.009378099
-0.27898696 -0.24579765 0.17870602 -0.5937155 0.1366222 0.792992
-0.08763918 0.22962679 0.13247925 0.010890967 0.49404666 -0.8693672
0.16754349 -0.09351353 -0.07297236 0.08953348 0.9947726 0.049104147
0.035961848 -0.308534 -0.23987053 0.0012893651 -0.999998 0.0015335052
0.1374152 -0.16793585 0.10122827 0.023917515 -0.40266037 0.9150369
0.159804 0.2946628 0.19331609 0.45348647 0.7568662 -0.4706416
0.28125533 -0.23183778 0.11463739 0.99429274 -0.01985976 0.104821295
-0.15099624 0.05907726 0.05800004 -0.15092562 0.44324455 -0.8836038
-0.03232891 -0.087624945 -0.24021795 0.01391175 0.99805194 -0.060817268
0.14841755 0.012041321 0.19506058 -0.05197023 -0.5004096 0.8642276
-0.19103101 0.19851321 0.22603762 -0.9949421 0.08203384 -0.057970986
0.071445815 -0.18433324 -0.27454126 -0.033491142 0.06660187 -0.9972174
-0.08580264 -0.30857658 -0.1512027 0.0048522376 -0.9999882 3.814652e-05
-0.02396202 -0.29780787 -0.2808582 0.008590311 -0.004058655 -0.9999549
-0.18793432 -0.083038114 -0.16479096 0.9831318 0.18264957 -0.00953339
0.19288667 -0.03248477 -0.10970965 -0.9755759 0.21747579 0.030918445
-0.2111687 -0.010978072 -0.23135608 -0.096944995 0.9926392 -0.072589464
-0.15229557 -0.21247435 -0.07145647 -0.018758852 -0.9982787 -0.055568244
0.28833967 -0.12690243 -0.09759598 0.9999172 -0.007994943 0.010085225
-0.28659075 -0.12123669 0.111206114 -0.99983364 0.009413106 -0.015622401
-0.171567 -0.09053423 -0.2439056 -0.07761762 0.99156886 -0.1037625
-0.21461421 -0.30550703 0.17503716 0.0044572805 -0.99021125 0.13950531
-0.21995384 -0.28396106 0.18946084 -0.05948638 0.42564684 0.902932
0.047558613 -0.2918199 -0.002900669 -0.003555771 0.99799144 0.06325008
-0.17750266 -0.29617968 0.06286716 0.2946024 0.9540948 0.053967733
-0.02164722 -0.30606127 -0.27300227 0.009590697 -0.9416268 -0.33652207
-0.0024575503 -0.08878674 -0.254958 0.014243029 0.99037784 -0.1376549
0.13057329 -0.07906701 0.15149823 -0.054225072 -0.5173601 0.85404813
0.116124645 -0.21618435 -0.041034296 0.05745344 -0.98232937 -0.17812365
0.09701858 0.062458333 0.22119206 0.0033015856 -0.47659189 0.87911844
-0.28466284 -0.25415593 -0.09106101 -0.9989496 -0.04559872 0.0045194784
-0.048089605 0.2280056 0.28531757 -0.012069587 -0.11134042 0.993709
0.28680477 -0.039339606 -0.16670227 0.99012697 0.108280025 0.08901715
0.06718528 -0.1001207 -0.2807851 0.0057132374 0.14627247 -0.98922783
-0.20560229 -0.30832884 -0.014875903 0.0102533465 -0.9999454 0.0020216792
-0.18649676 0.26654425 0.19628724 -0.9803789 0.19210856 0.044175096
-0.04486316 -0.08767337 -0.27333966 0.015111366 0.99581546 -0.09012877
0.28845555 -0.08253739 -0.102107696 0.99941933 0.03400734 0.0021044903
-0.024907535 -0.30831867 -0.14208952 0.0033874062 -0.99998677 0.0038756812
-0.16008587 0.25363183 0.28719422 -0.0897039 0.0037258 0.9959615
0.071125254 -0.27635586 -0.16022137 0.007450455 0.99851334 0.053996753
0.07401195 -0.090002514 -0.27546927 -0.03440914 0.8638335 -0.50260097
-0.0039311643 -0.21348825 -0.08458545 -0.014593736 -0.9993888 0.031764634
-0.28825262 -0.09953084 -0.013570689 -0.993788 0.11041668 -0.013912971
-0.28496373 -0.23786253 -0.02357131 -0.99997884 -0.006500107 -0.00030516932
0.21474726 -0.036125135 0.15501325 0.38654375 0.2553474 0.8862176
-0.13688774 0.12604465 0.25456205 0.013712314 -0.54141194 0.8406457
0.1917246 -0.2557295 -0.044039458 -0.9981968 -0.053446542 -0.027324906
0.19515745 0.011245398 0.1170194 0.9996554 0.024420904 -0.0096249785
0.027983489 -0.3049199 0.14759497 0.007642804 -0.99975806 -0.020624893
0.28809142 -0.06387608 -0.13991418 0.9995689 0.029238487 0.002684389
-0.16819683 -0.09524899 -0.27611384 -0.12288677 0.34301582 -0.93125665
-0.21375825 -0.026405316 0.1525671 -0.7242405 -0.17239334 0.6676498
0.0063661076 -0.27680832 -0.15010543 -0.00481261 0.996522 0.083190486
-0.041101564 0.28266808 0.173801 -0.0062024756 0.7297764 -0.6836578
0.21387745 -0.025510723 0.04750484 0.31955287 0.93939537 0.12418658
0.28533414 -0.30300093 -0.1033112 0.567104 -0.82355005 0.0125852255
-0.13835168 -0.30884993 -0.18406115 0.0030517415 -0.99999464 0.0011978085
0.011808498 -0.30367884 0.021012673 0.0054302285 -0.9996501 0.025885105
0.080264404 -0.24469443 -0.18949097 -0.05290289 -0.9450848 0.3225151
-0.20168349 0.031357054 0.09573643 -0.94560796 0.19556119 -0.2599643
0.28909388 -0.201111 -0.1607257 0.9998807 0.013288819 0.007872595
-0.06769177 -0.2744096 -0.19489194 -0.005768555 0.992252 0.124107204
-0.17355925 -0.20986377 -0.09248484 -0.15482989 -0.9874399 0.031467713
0.0329789 0.041979466 0.21064734 -0.0073972787 -0.48959076 0.87192094
-0.2500872 -0.02085835 0.09771764 -0.43369746 0.87736183 -0.20528701
-0.28460893 -0.29687196 0.14116469 -0.99259156 0.08795134 -0.08382413
-0.120074496 -0.20775262 0.07012171 -0.016244167 -0.95477825 0.2968749
0.116062954 -0.089883275 -0.010913501 -0.01475715 0.8573799 -0.5144724
0.08841739 -0.046168778 0.02198483 0.0012706124 0.20067507 -0.97965705
-0.1032751 -0.29194224 -0.036592305 -0.015313187 0.99956673 -0.02513559
-0.048147786 -0.21220528 0.060341526 -0.041992106 -0.99637747 0.07394989
0.0819871 -0.15186107 -0.27590564 -0.027224662 -0.01265146 -0.99954927
0.09788434 -0.12365208 -0.28156027 0.0015126476 -0.085810445 -0.9963103
-0.2195977 -0.016321853 0.013509639 -0.023541471 0.998585 -0.04768481
0.2418651 -0.30538478 -0.0010813514 0.006156734 -0.9999696 0.004783485
0.2856559 -0.160413 0.08465056 0.9989136 -0.04017847 0.023610186
0.28819907 -0.11697427 -0.06076682 0.9998566 -0.015851608 0.0059653306
-0.28517416 -0.21769622 -0.03745584 -0.9995852 -0.028781392 -0.0009837836
-0.033121873 0.07191398 0.22619581 0.006488004 -0.46041885 0.8876781
-0.27093178 -0.30788282 -0.10792042 -0.12534703 -0.99199885 -0.015045881
-0.10073904 -0.30790746 -0.09069559 0.007552597 -0.99993336 0.008727446
-0.048054263 -0.09125648 -0.0918808 -0.010209089 0.9986013 0.05187589
-0.07753871 -0.2326966 -0.16048923 -0.030960713 -0.766589 0.6413913
0.059189763 -0.21425584 -0.07408812 -0.008618532 -0.9996887 -0.02341495
0.19832028 0.060887672 0.18480483 0.99163646 0.07899985 -0.10205975
0.16538869 -0.2870488 -0.095745325 -0.18622793 0.96285015 0.19554727
-0.07770948 -0.16784187 0.11024196 -0.022890674 -0.61964613 0.7845475
0.071574874 0.10298654 0.24114525 -0.008822369 -0.6305156 0.7761264
0.070806436 -0.30716616 -0.26861605 -0.0031423795 -0.97833246 -0.20701641
0.283009 -0.302857 -0.04471258 0.37051442 -0.9281472 0.035524018
-0.12115725 -0.30598453 -0.003853818 0.020115923 -0.9949563 0.09827197
-0.09650626 0.12868416 0.095039055 -0.07577144 0.34672233 -0.9349023
0.16247337 -0.09728561 -0.03178535 0.025175095 0.99720454 0.070351794
-0.19326682 -0.051810417 0.012896235 0.98109496 0.19097167 -0.031344403
0.09792208 -0.06149889 0.15981184 -0.0072836042 -0.41626143 0.90921575
-0.26492304 -0.30720222 0.113526314 -0.032262765 -0.9994671 0.004964089
-0.11133561 -0.21943697 -0.27234206 -0.024321558 -0.342322 -0.9392679
0.16876113 -0.30785277 -0.12608023 -0.02467417 -0.9994106 0.02386593
-0.18488777 0.058683384 0.06726183 -0.51068604 0.38860774 -0.7669314
-0.17803477 -0.28891438 0.11630201 0.11195844 0.98171103 -0.15397656
-0.07966016 -0.29584888 0.029473836 -0.13084133 0.9532871 0.27225763
0.051027745 -0.08785143 -0.002467991 -0.020460142 0.848993 -0.5280078
-0.28175768 -0.2724971 -0.011934833 -0.99937737 -0.033365443 0.011475089
0.25755784 -0.10235186 -0.28325948 -0.0082910145 -0.043580335 -0.9990155
-0.28770995 -0.10864257 -0.1641381 -0.9998181 -0.010473253 -0.015942534
0.07307432 -0.13928275 0.117510006 0.023664242 -0.29195136 0.9561404
-0.22554913 -0.3090676 -0.10834781 -0.00086974946 -0.9999983 0.0016708345
