ply
format ascii 1.0
element vertex 677
property float x
property float y
property float z
property float nx
property float ny
property float nz
end_header
-0.14022829 -0.030703379 0.032998748 0.13187778 0.95179147 0.27694988
-0.021119889 -0.03894942 0.28777915 -0.82335925 -0.4788722 0.30456668
-0.0812792 -0.063608594 -0.027386444 0.74422246 -0.48216158 0.46222624
-0.028128993 -0.013784377 -0.24336122 -0.74976975 0.6616986 0.0005777492
-0.024387293 -0.0075545954 -0.0021452454 -0.6560664 0.754516 -0.016808098
-0.17187886 -0.042132627 0.019870264 -0.13950504 -0.9894591 -0.038847018
0.012042226 -0.06966257 -0.15539154 0.25481182 -0.966985 -0.003327257
0.026749074 -0.0128467195 -0.2802385 0.74530554 0.6653183 -0.043257467
-0.08931662 -0.032863125 -0.051137358 -0.10780019 0.989259 -0.09872061
0.28108552 -0.022161262 0.10499855 -0.13472858 -0.8981814 0.41847154
-0.026580634 -0.055418063 -0.3072392 -0.9315781 -0.35920683 -0.05597059
-0.050548404 -0.058050487 0.023220802 -0.12520045 -0.95231396 0.27824986
0.097251005 -0.019718774 0.36749163 -0.031156607 -0.9512599 0.30681238
-0.022989225 -0.06156935 -0.20893015 -0.7551905 -0.6554448 0.0089132665
-0.017037293 -0.0035586338 0.097664475 -0.51221997 0.8588479 0.003302455
-0.0071300077 -0.057190366 0.25586888 -0.41617072 -0.8514148 0.31920967
-0.012011523 -0.00081452116 0.095826104 -0.30052623 0.953767 0.0035510124
-0.1024695 -0.0883223 -0.06892944 -0.3191664 -0.91070765 0.26219156
0.030482214 -0.019634314 -0.17575917 0.94938123 0.31405082 -0.006881044
0.030724725 -0.061530385 -0.11015204 0.90347487 -0.4146395 -0.10866072
-0.12130482 -0.03459339 0.035202824 0.07246216 0.9867802 0.14496195
-0.03205203 -0.045730952 0.12574145 -0.97398883 -0.22463004 -0.029783228
-0.034353513 -0.03737073 0.14077644 -0.9999948 -0.003181441 -0.0005035374
-0.10055042 -0.009583379 0.36275038 0.106795006 0.96542144 0.23781574
0.0072980886 0.064414665 0.35532472 0.95150095 -0.08008544 0.29703915
-0.04962363 -0.09385338 -0.01788499 0.06443066 -0.9537048 -0.2937616
-0.033915315 -0.041267067 -0.25735402 -0.91861355 -0.39425763 -0.026646186
0.08435554 -0.06773984 -0.02774018 -0.69834936 -0.53307945 0.47763425
-0.03364983 -0.037630055 0.17708528 -0.9684196 -0.23743044 0.076093696
-0.07629851 -0.03757396 -0.071065806 0.08889977 0.8867111 -0.45369613
-0.05868051 -0.09467237 0.015672 -0.16842487 -0.94292605 0.287269
-0.06735893 -0.058693048 -0.0951167 0.9669172 -0.25335544 -0.029699774
-0.029255103 -0.02282605 0.21387023 -0.8652943 0.47896087 0.14785914
-0.011038094 -0.06957679 -0.19005238 -0.3028402 -0.9529426 -0.013719197
-0.017610908 -0.00722829 -0.3006526 -0.40558732 0.90102106 -0.1538181
0.03565534 -0.0491699 0.04072211 0.955358 -0.07683857 0.28528377
-0.13041465 -0.04611078 0.04520549 0.05360407 -0.928259 0.3680512
-0.17860937 -0.04060138 0.018330008 -0.2585698 -0.9634221 -0.070423484
-0.022469515 -0.023244973 -0.3394517 -0.93696934 0.28004998 -0.2089509
0.11099635 -0.031360548 -0.034130465 0.015520494 0.9986756 -0.04905299
-0.030284425 -0.016263982 -0.07241375 -0.8619529 0.5069882 -0.00036168983
-0.031704992 -0.031261545 0.0784985 -0.9993578 0.03520992 -0.00664856
-0.044794854 -0.092745386 -0.018050348 0.51053035 -0.7741907 -0.374149
-0.009681075 -0.06662156 0.19889769 -0.15178901 -0.98598915 0.06917691
0.11308674 -0.055906907 -0.050186288 0.9710362 0.17978749 0.15736961
0.009919528 -0.0012340492 -0.091785006 0.5915893 0.80594176 -0.021908375
-0.004094311 -0.028214984 0.36790675 -0.74292517 -0.35764384 0.5658207
-0.026567437 -0.010696401 -0.25901756 -0.885546 0.46447384 0.008499274
0.008894316 -0.00069792295 -0.27838475 0.15267113 0.9859534 -0.067730136
-0.052846767 -0.0941477 0.019436857 -0.08095549 -0.9433675 0.32172033
-0.010319502 0.03041903 0.28850883 -0.98914444 0.121846974 -0.08213691
-0.006116946 -0.07033884 -0.2683503 -0.10646256 -0.99424726 0.0117499465
0.05909898 -0.034935478 -0.058288693 -0.049836505 0.99682134 -0.062156837
-0.19948511 -0.038684916 0.03584994 -0.07283003 -0.9965526 -0.039733764
-0.007800113 0.05760971 0.35019726 -0.96641654 -0.009629364 0.25680023
0.007721605 0.032115467 0.26869297 0.88245595 0.3374516 -0.32771626
-0.021028444 -0.06369709 -0.26598474 -0.66239506 -0.74901694 -0.014366368
0.09871007 -0.05753519 -0.12268192 -0.02603283 -0.1309505 -0.9910471
0.22829029 -0.03124408 0.033387158 0.15456843 -0.98137933 -0.11403204
0.00448902 -0.07033146 0.11882189 0.021974843 -0.9997524 -0.0035086523
0.03821045 -0.07684187 -0.010377715 -0.97889215 0.09390709 -0.18152581
-0.08877899 -0.011589311 0.36562547 0.102151975 0.96694326 0.23363566
0.02632856 -0.012647515 -0.28699017 0.7164759 0.69733614 -0.019613003
-0.040705364 -0.071666755 0.012512549 0.39313054 0.0385631 0.91867363
0.0134615805 -0.06948324 0.1089585 0.16326691 -0.98652595 0.010507128
0.031115409 -0.049261004 0.07831672 0.99226123 -0.12406293 0.0051024174
0.24915752 -0.019342007 0.08105217 -0.21168642 0.9510253 0.22525467
-0.106798664 -0.0404918 -0.09991887 -0.22995746 0.97200763 -0.04817323
-0.0266565 -0.01666286 0.23022301 -0.878493 0.47674635 0.031031972
0.042164426 -0.03655032 -0.07748689 0.156008 0.95776486 -0.241553
-0.01822796 -0.0045714136 -0.05799562 -0.60277176 0.79791313 -0.00091313914
-0.015544176 -0.0032585878 -0.18021113 -0.2824523 0.95913327 -0.016852448
-0.2844122 -0.016093837 0.06444356 -0.19027942 0.9031107 -0.3849479
0.31652746 -0.018302586 0.08857035 0.55845755 -0.73745143 -0.37985602
-0.054727208 -0.017440137 0.29891598 -0.34145012 0.83341646 -0.43454438
0.103179455 -0.050612833 -0.0016855024 0.567159 -0.80078435 0.19254895
-0.04458084 -0.03926427 -0.006947934 -0.01886783 0.99961364 0.020408371
-0.095573984 -0.033945564 -0.0015987043 0.093487754 0.9870813 0.13011773
-0.015489434 -0.0036561734 -0.10106742 -0.19646561 0.98051023 -0.0009575295
-0.10931737 -0.087421425 -0.079433985 -0.53232163 -0.82436085 0.19251706
-0.099641845 -0.085989594 -0.11848218 -0.2987491 -0.5650988 -0.7690334
-0.004942553 -0.048551925 0.29470596 -0.40794426 -0.83589655 0.36723074
-0.047218964 -0.039875887 0.0054170727 -0.037800275 0.9964919 0.07466543
0.027100036 -0.012582181 -0.12685013 0.77083963 0.6370064 -0.0053870324
0.15861967 -0.04370921 0.032706838 0.1232072 -0.99238086 0.00042399083
0.06255011 -0.015006376 0.35487106 -0.21293409 0.96690446 0.140552
-0.00822694 0.06929113 0.3453524 -0.9995706 -0.0021505654 0.029223286
0.03220221 -0.045468505 0.13602893 0.9549682 -0.29356062 -0.043102965
0.25454324 -0.019557444 0.045979794 0.21482857 0.8778803 -0.42798942
0.064015575 -0.025159331 0.34792122 0.13224423 -0.9595613 0.24850266
0.14144772 -0.04510244 -0.010731944 0.30209103 -0.94796395 -0.100524925
-0.06096505 -0.034948006 -0.041579794 0.06128411 0.9980903 0.007744277
0.032372314 -0.04237402 0.18329237 0.95556825 -0.2735944 0.109706044
-0.115197964 -0.03198178 0.014969461 0.21536122 0.9703952 0.1093279
-0.11114835 -0.032207508 -0.038598716 -0.0090516135 0.96929175 -0.24574687
0.0074460628 0.022180444 0.2578556 0.75820184 0.46455133 -0.45751724
0.07211212 -0.046582952 -0.08908771 -0.4977578 0.81656754 -0.29232633
0.011600332 -0.025591725 0.3574423 0.886088 -0.27936327 0.36987036
0.012563704 -0.06322514 -0.33993465 0.38595107 -0.9088805 -0.15804447
-0.0871305 -0.03762691 0.027758334 0.24303605 0.89662033 0.37014255
-0.014958385 -0.050383795 0.2737507 -0.22246046 -0.97155595 0.08118043
-0.010053681 -0.0700865 -0.17595848 -0.25853008 -0.96590996 -0.013419511
0.033087038 -0.04177091 -0.21118431 0.9257975 -0.37801647 0.0015833362
-0.0019500825 -0.00018170144 -0.21994896 -0.00837671 0.9999564 -0.004119694
-0.02740079 -0.025579054 0.2534546 -0.9999835 0.0057295808 0.00054167805
-0.08994871 -0.085527055 -0.050102666 0.13124655 -0.98189205 0.13661028
0.088471025 -0.023455355 0.3471132 0.01607823 -0.9997181 0.017466389
0.08778186 -0.011913924 0.36578935 -0.10727808 0.9531046 0.2829893
0.005586001 -0.071057856 -0.27933478 0.13254218 -0.9756582 0.17471063
-0.025917752 -0.051992495 0.21963263 -0.88302803 -0.42618647 0.19653668
-0.010489804 -0.0004241733 0.106136635 -0.37442046 0.92725766 0.0015705201
0.11514102 -0.08515661 -0.10180716 0.7204736 -0.6928011 0.030730788
-0.049951766 -0.0818008 0.024864938 0.13409029 0.6565471 0.7422706
-0.029617235 -0.05250918 -0.1626549 -0.9209356 -0.38913798 -0.021197988
-0.1702811 -0.027129713 0.046968695 0.16825107 0.9821415 0.084200464
-0.11495988 -0.039450437 0.045191847 0.22118294 0.7007539 0.6782492
0.011349132 -0.0014678787 0.20488586 0.51432323 0.857576 0.005927764
0.071392864 -0.07688555 -0.10393241 -0.83105767 -0.5463916 -0.10391995
0.11828017 -0.045279037 -0.04295466 0.5655822 -0.74093074 -0.36213037
0.0059854435 -0.075918496 -0.046713226 0.2384283 -0.97044605 0.03723429
0.047238454 -0.09591613 -0.00035472913 -0.35296384 -0.9336873 -0.06036944
-0.027371638 -0.01230457 -0.25484344 -0.8879353 0.45969102 0.015974054
0.023282701 -0.061082274 0.19038661 0.7211818 -0.69117564 0.046615545
0.0055049425 0.09347352 0.36859542 0.80637 0.529983 0.2624603
0.17304984 -0.03822527 -0.0077235484 0.42056233 -0.7777013 -0.4672344
0.23697229 -0.031737443 0.062484358 0.08879757 -0.995797 0.022434909
0.24971807 -0.022518033 0.039632905 0.5037875 0.045083273 -0.86265033
-0.008565738 -0.07570346 -0.058948714 -0.24757141 -0.96824336 0.034830227
-0.07471392 -0.08010111 -0.067665204 0.7332033 -0.665303 0.14065854
0.030585906 -0.01701088 -0.1392508 0.8010322 0.5985995 -0.005105852
0.034733858 -0.03632978 0.16124004 0.9954767 0.094343655 -0.01119486
-0.022173088 -0.07336212 -0.0061144065 -0.01980998 -0.98953265 -0.14294289
-0.025740834 -0.009187209 -0.124319546 -0.7085638 0.7055123 -0.013774266
0.1944798 -0.02503445 0.060070675 -0.37096223 0.8278713 0.42073283
0.0117242 -0.07408483 -0.003292683 0.07175161 -0.99741507 -0.003858104
0.1530569 -0.02710317 -0.0016718314 -0.029631106 0.9989219 -0.035735663
0.01370253 -0.06940725 0.13267626 0.4852235 -0.87438536 0.0029018985
0.022913335 -0.07026515 0.052071866 0.22432977 -0.9701515 0.09209896
-0.012751957 -0.06919467 0.1276245 -0.26467377 -0.9642906 -0.009564039
0.025300305 -0.010511261 -0.25574702 0.7129178 0.70120484 0.0077453232
-0.023336453 -0.058793403 0.20098785 -0.7902328 -0.5977269 0.13510984
0.2678613 -0.017639995 0.09294433 -0.41460818 0.8004933 0.43279383
0.04588612 -0.03926836 -0.004446948 0.005171595 0.99978065 0.020297365
-0.06716897 -0.08565414 0.0028755916 -0.9963215 -0.05986047 -0.06131993
0.08415195 -0.045698892 -0.11691585 -0.31070945 0.69593126 -0.64740974
-0.012472186 -0.07518359 -0.09064063 -0.22439073 -0.97420806 -0.023821538
-0.024542961 -0.010296455 -0.2812967 -0.7015362 0.7086049 -0.075670764
-0.0064113494 -0.0005559429 -0.2136631 -0.27642635 0.9609015 -0.016025778
0.0106167365 -0.009511166 -0.32800177 0.5089785 0.7957628 -0.3281807
-0.10208792 -0.039547283 -0.09893131 -0.0831681 0.9953441 -0.048714694
0.087711506 -0.038927738 -0.08239354 -0.22489132 0.9708183 -0.08328156
-0.1837874 -0.023396185 0.017312221 0.025263235 0.9994877 -0.019650877
0.022521488 -0.015568312 0.2808513 0.4526195 0.89022887 0.051265314
-0.030819945 -0.018947013 0.12028475 -0.9792727 0.20254579 -0.00047068924
-0.034956448 -0.03818904 -0.11234653 -0.9998545 -0.008993747 -0.01449374
-0.06386845 -0.059265137 -0.042433456 -0.12636657 -0.9878993 -0.08992483
-0.030655578 -0.049944736 -0.17847449 -0.9168178 -0.39924017 0.0072395816
-0.025070244 -0.008257271 -0.006305826 -0.67194754 0.74041677 -0.016415795
-0.04742807 -0.023036499 0.2871573 -0.61593825 -0.3173441 -0.7210497
0.034410372 -0.03496872 -0.22563794 0.9982165 -0.059692543 0.00073111564
0.031613868 -0.021438621 -0.047179956 0.9909533 0.13404542 -0.0065775253
-0.0035750514 0.00081247836 0.06724725 -0.084534384 0.996411 0.0043635555
-0.07625525 -0.084120005 -0.08568392 0.5131193 -0.8564202 0.057035256
-0.29496327 -0.023156578 0.11067558 -0.038523313 -0.9821684 0.1840142
0.04968088 -0.05995307 -0.05196014 0.31260702 -0.9494838 -0.027519906
-0.1331695 -0.046625387 0.009402864 -0.067844115 -0.9976959 -0.00012940087
-0.23518911 -0.022592723 0.07950082 0.18524912 0.93417096 0.30497113
-0.0322514 -0.039469603 0.08206718 -0.99857867 0.031114161 0.043273367
0.0039538024 -0.07627152 -0.045675267 0.18822461 -0.9813198 0.03978692
0.07259858 -0.035257548 -0.011043344 -0.06675587 0.99690384 0.04155034
-0.026952459 -0.045487944 -0.33142188 -0.96741766 -0.24223822 -0.07364573
-0.029571012 -0.046795316 -0.31173897 -0.9112084 -0.3730863 -0.17465934
0.07350257 -0.045998678 0.036751185 -0.33149174 0.6577545 0.67636704
-0.037078034 -0.03421682 -0.06323768 -0.7331461 0.6792171 -0.03407175
0.13702576 -0.03631388 -0.03354922 0.4293087 0.50230485 -0.750589
-0.07306466 -0.046255946 -0.092763625 0.453088 0.86395127 -0.2197713
0.10308795 -0.032599587 0.005257895 -0.2374822 0.9639611 0.11992149
0.106549144 -0.031305384 -0.029251808 -0.00904016 0.9999256 -0.008185731
-0.064868696 -0.075600944 -0.0064997505 -0.92949194 0.35939428 -0.08294881
-0.11721777 -0.051365104 -0.11099267 -0.8541804 0.48960012 -0.17512158
0.098370954 -0.048694137 0.036355406 0.23186797 -0.95969707 0.15880442
0.030260129 -0.049581036 -0.15946946 0.83401155 -0.55174696 -2.5452013e-05
0.02683733 -0.062174164 0.07675089 0.8645342 -0.49909648 0.059019867
-0.118832886 -0.062017508 -0.069242164 -0.8770661 0.38838503 0.28268743
-0.033143565 -0.02515624 -0.1647276 -0.92712456 0.3746313 -0.009569286
0.041687258 -0.022668429 0.28189883 0.64958334 0.13443908 -0.74830985
-0.013712684 -0.003335618 0.26275256 -0.778328 0.6278525 0.0026202037
-0.06018245 -0.04077441 0.01635564 0.14734998 0.9588649 0.2426232
0.008048175 -0.063341565 0.21892522 0.16738738 -0.9765779 0.13519292
-0.29461232 -0.01129589 0.091654666 0.127339 0.9915391 -0.025198493
-0.08662983 -0.03891732 -0.08115123 0.13230819 0.9872423 -0.088584565
-0.01747413 -0.06681309 0.1395058 -0.4864516 -0.87370217 -0.0030729424
0.03201281 -0.043741815 0.115131706 0.9697711 -0.24182127 -0.032658156
0.2996439 -0.011494712 0.09714988 -0.16555287 0.9853486 0.040993545
-0.060333878 -0.01602394 0.35720795 0.1747942 0.9781669 0.112412475
-0.004630235 4.676798e-05 0.14025822 -0.034827583 0.99932593 0.011604112
-0.0051056026 0.045663517 0.28160378 -0.78001386 0.44135454 -0.44360402
0.12442616 -0.030398106 -0.024241695 -0.09037522 0.98623437 -0.13847099
0.066552825 -0.035465054 -0.013818774 -0.05907916 0.9962207 0.0636699
-0.051978383 -0.061016902 -0.033284217 -0.2383149 -0.96848077 -0.072463155
-0.02754466 -0.037294403 0.23934078 -0.9974372 -0.036801193 0.061358154
-0.20703521 -0.023164744 0.057638697 0.11587584 0.9919717 0.050646015
0.0009001619 -0.07022513 0.17149603 0.012837542 -0.99978745 0.01613274
0.19815335 -0.021986984 0.030666757 -0.23179555 0.97268414 -0.01250437
-0.02265211 -0.067817435 -0.12359153 -0.5560892 -0.79404736 -0.24546613
-0.3230402 -0.01204979 0.12124587 -0.77278084 0.46222284 0.43492505
0.033489436 -0.01795023 0.34050128 -0.25862437 0.93048644 0.2594386
0.065926075 -0.024362685 0.35070446 0.12274764 -0.98692054 0.1045034
0.011527618 -0.0041630575 0.29944977 0.9967434 -0.0035133015 0.080562584
-0.1723588 -0.0237977 0.024750046 0.07731695 0.99695885 0.009751138
0.10491353 -0.048771158 0.0072730975 0.22783834 -0.9720678 0.056337282
0.012890882 -0.07406093 -0.022253875 0.08104968 -0.9965613 0.017221157
-0.10351115 -0.048511513 0.021875842 -0.319229 -0.94525295 0.06774678
-0.01144903 0.0045508044 0.3056712 -0.9973395 -0.06856557 0.02475239
-0.023965778 -0.016834868 0.30626416 -0.2437717 0.96981865 -0.005208987
0.010322464 0.07359287 0.3425498 0.9978014 -0.024938945 0.061403397
-0.012878205 -0.0028466536 -0.09365406 -0.46468714 0.8854584 -0.005411165
0.013977965 -0.037886105 0.31554174 0.770824 -0.58008647 0.26330614
-0.27510634 -0.01491599 0.06712914 0.020878455 0.9840276 -0.17678744
0.2541532 -0.028557682 0.07784049 0.1957719 -0.9745619 0.10909841
0.029830135 -0.017680664 -0.2230794 0.9362972 0.3506257 0.020230053
-0.044614196 -0.0157974 0.33420247 0.054958686 0.9977209 0.03914855
0.11605379 -0.047480445 -0.03685463 0.31097665 -0.9465719 -0.08541188
0.114119366 -0.03237568 0.021807995 -0.26115376 0.95167774 0.16158018
-0.10982693 -0.047656532 0.021726774 -0.08153584 -0.9959986 0.036588542
-0.021199655 -0.010397073 -0.3059613 -0.6507289 0.7062748 -0.2787972
0.019319084 -0.0055712243 -0.16193308 0.6395885 0.76870847 0.0037280698
0.027380496 -0.014949717 -0.30014518 0.83990884 0.5201242 -0.1549966
-0.00044374377 0.062334742 0.29122478 -0.17617424 0.7075905 -0.6843086
-0.03496698 -0.03503377 -0.18712345 -0.9999635 -0.008384399 0.0016097436
0.02140624 -0.061378714 -0.31553423 0.7080707 -0.6682263 -0.22827515
0.030660471 -0.031842303 0.23883404 0.9943807 -0.040694106 0.097729586
0.044827513 -0.09429323 -0.010365927 -0.42538214 -0.9003745 -0.09151984
-0.009651092 0.03610828 0.29243198 -0.91350955 0.35363787 -0.20109817
0.10507398 -0.07843689 -0.038439587 0.50853354 -0.80090487 0.3161409
0.1463212 -0.04171727 0.05565863 -0.068790056 -0.85253876 0.51811737
-0.008753053 0.04993764 0.30366492 -0.96326756 0.14141232 -0.22829396
-0.071376085 -0.020491567 0.30750433 -0.5193005 0.40734962 -0.7512611
0.1662421 -0.0275135 -0.009702477 0.088336535 0.98155695 -0.16953635
-0.02990318 -0.023909627 0.3506544 0.18139003 0.26622748 0.9466893
-0.043013576 -0.06191328 0.01925358 -0.40642768 -0.8559837 0.31954408
0.082432345 -0.033900924 -0.05864818 -0.13561068 0.9541069 -0.2670013
0.010152326 -0.06643869 0.19859165 0.17513245 -0.98291343 0.056655206
0.050471563 -0.09245199 0.024184253 0.06374491 -0.8758177 0.4784139
0.0032332237 -0.0002610065 -0.22722319 0.08901566 0.99602705 0.0025076976
0.0018460427 -0.07407848 -0.28714988 -0.032894045 -0.79901564 0.6004099
0.039734975 -0.027866844 0.29669166 0.1689346 -0.9852539 -0.027128458
-0.010077524 -0.06968703 -0.25210658 -0.2662718 -0.9638969 0.0014634359
-0.12355747 -0.035595454 0.042510424 0.1003299 0.95293045 0.28610742
-0.046048187 -0.08373197 0.024912033 0.4170215 0.6336207 0.65162706
0.054098826 -0.096857436 -0.0038023032 0.010076976 -0.9998558 -0.013669903
-0.11146201 -0.06317498 -0.045752734 -0.88010067 0.25372136 0.4013082
-0.28792945 -0.01271862 0.09702079 0.17052571 0.9715777 0.16418798
0.030376008 -0.029673245 0.30047745 0.17873672 -0.9823591 0.054989386
0.011329011 0.021745257 0.32070115 0.99814165 -0.008909803 0.060282055
-0.02353609 -0.057388462 0.20503433 -0.75468785 -0.62685937 0.19363245
-0.05142101 -0.07901164 -0.02318902 0.06155847 0.24174187 -0.968386
-0.1832564 -0.03887921 0.0082740905 -0.058846556 -0.9967867 -0.054344464
0.12492209 -0.030934356 0.009368934 -0.07158603 0.9972286 0.020260772
0.045663882 -0.06147626 -0.0652982 0.55367553 -0.83093154 -0.0547373
0.18604693 -0.03957839 0.056673538 0.094978295 -0.9827895 0.15844212
-0.18890914 -0.039489742 0.033800784 -0.08972909 -0.99568 -0.023875596
-0.0046403995 0.094878554 0.3457935 -0.79815185 0.60192204 -0.025367867
-0.050010815 -0.08825921 -0.025012866 0.09047668 -0.5316561 -0.84211385
-0.04108115 -0.08171777 0.018283643 0.69753456 0.4409664 0.56479573
-0.019164922 -0.06993512 -0.1210455 -0.36508566 -0.9256162 -0.09973509
-0.026775422 -0.057022102 -0.28848857 -0.73996717 -0.6723761 -0.018946303
-0.022178529 -0.007641702 -0.06291619 -0.530896 0.8471585 0.021723174
0.02837711 -0.014468452 -0.15156989 0.7430731 0.668782 -0.023935366
-0.035479948 -0.028062426 0.30784994 -0.126452 -0.9893343 0.0723025
-0.036726993 -0.062526025 0.029206404 -0.8123825 -0.5311564 0.24063972
0.0036009753 0.0008155575 0.038030937 0.10771174 0.9940849 -0.013909543
-0.025831878 -0.012448162 0.21250969 -0.7609053 0.6482497 0.028201891
-0.0018773017 0.0010106654 0.054522324 -0.016583778 0.9998477 0.0054313014
0.1400965 -0.02978507 -0.02332691 0.062195905 0.9088341 -0.41249517
-0.029818766 -0.01500641 -0.011121571 -0.8958669 0.44420102 0.010390628
0.026511839 -0.012058404 -0.1349041 0.7593375 0.6505159 -0.015350691
-0.051353473 -0.036591332 -0.02394791 0.10535847 0.9711353 0.2139992
0.09902941 -0.087040246 -0.057420973 0.15719491 -0.8966773 0.41383517
0.0042139553 -0.07494097 -0.0172965 0.118264616 -0.9927744 0.020306611
-0.030047556 -0.053843852 0.08649959 -0.8551666 -0.5136144 0.06993075
-0.27103543 -0.015552143 0.061778657 0.013030368 0.99470955 -0.10189793
-0.006549508 -0.070187755 -0.20902729 -0.09077931 -0.9958676 -0.002628862
-0.026847782 -0.017487535 0.31818864 0.23528591 0.96914095 0.073528275
0.039217483 -0.07644538 -0.015094882 -0.96834135 0.0706427 -0.23942572
-0.20418727 -0.034840748 0.07187554 0.096432276 -0.9510588 0.29357788
-0.18827881 -0.03865238 0.012146019 -0.055664416 -0.9953678 -0.07838582
0.0108506605 0.005983528 0.31350806 0.9845928 -0.05483648 0.16604187
0.0105890995 0.07966482 0.3331263 0.9964452 -0.017774114 -0.082347825
-0.010609349 -0.0712137 -0.12900278 -0.15514943 -0.9813128 -0.11381468
-0.05849512 -0.027090587 0.31716698 -0.033037566 -0.99868536 -0.03919401
0.011747304 0.016952269 0.2876617 0.9997269 0.022729386 -0.0054306453
-0.009728592 -0.035701454 0.33765125 -0.67074543 -0.73050016 0.12833577
-0.014346028 -0.0029300996 -0.15727639 -0.29007286 0.9563444 0.035540417
0.11401633 -0.016314602 0.36859754 0.73344827 -0.60977453 0.30038074
0.05862586 -0.08801344 0.025230607 0.42659566 -0.4835232 0.7643438
0.00787093 -0.061455645 -0.355786 0.45186412 -0.82260233 -0.34517285
-0.029438226 -0.045048878 0.21156591 -0.8246866 -0.55300695 0.118639305
-0.0008043472 -0.011406366 0.35703444 -0.010669612 0.9604996 0.27807677
0.0055148574 -0.074911766 -0.023234423 0.13478936 -0.9903645 0.031780038
0.12062216 -0.06245606 -0.088451646 0.9912772 0.12239709 0.048871104
-0.011050088 -0.048606735 -0.36963353 -0.73364586 -0.22678888 -0.64057046
0.020540182 -0.0067772735 0.23427527 0.67180014 0.73991287 0.034835834
0.0034014212 0.0005513093 0.11983831 0.08305147 0.99649596 0.00991387
0.22692998 -0.030515758 0.02781351 0.14288503 -0.9644776 -0.22218628
-0.08064915 -0.057865027 0.016326841 -0.13698865 -0.990259 0.024924198
-0.031681675 -0.045769203 -0.1724878 -0.9845045 -0.17480002 0.013993316
-0.0065350994 -0.0645295 0.2184383 -0.3957574 -0.8749144 0.27910742
0.026339913 -0.0464037 -0.33608463 0.94000095 -0.31087616 -0.14054976
0.0077960673 -9.236028e-06 0.13573596 0.06395347 0.9979177 0.008374859
0.08497713 -0.035082478 0.0032042358 -0.051077176 0.99832803 0.027061915
0.050223157 -0.096745506 0.008981001 -0.10201762 -0.9945446 0.021754147
-0.31480432 -0.0052608475 0.111335695 0.42018366 0.8177936 0.39326745
-0.16430664 -0.025657678 0.029392235 0.2683949 0.9480559 0.17074582
0.032693025 -0.025849191 0.004523551 0.9723275 0.2332282 0.013560597
-0.030067787 -0.018291818 -0.28835213 -0.94394976 0.2953516 -0.14739853
-0.006927924 -0.0004918399 -0.27637994 -0.115245864 0.9902652 -0.07805954
-0.010522257 -0.05908787 0.23891352 -0.2835537 -0.93934053 0.19296786
-0.31710312 -0.016353775 0.087480605 -0.82020247 0.25942957 -0.5098669
-0.003688604 0.024736622 0.34456462 -0.6782371 -0.2305698 0.6977335
0.028204355 -0.027726006 -0.324379 0.93801564 0.1429724 -0.3157301
0.02733182 -0.054271203 -0.30787247 0.94468445 -0.3175856 -0.08191897
0.027660083 -0.010316259 0.027045444 0.7974118 0.6033381 -0.0108412765
0.11365256 -0.08669459 -0.098098375 0.76473737 -0.6433001 0.036628883
-0.16050205 -0.029374879 0.05144912 0.36791468 0.87468225 0.31554678
-0.03288839 -0.040069748 0.11493764 -0.99832696 0.0049127266 -0.05761219
-0.01926525 -0.073991224 0.019631375 -0.03169737 -0.9989511 0.033046354
-0.034927193 -0.030210592 -0.040118437 -0.9743597 0.22328828 0.027668508
0.24761619 -0.02275978 0.038389817 0.50818455 0.044948652 -0.86007446
-0.028479554 -0.06003168 0.07412146 -0.8729896 -0.47128552 0.1256148
0.20877294 -0.03639371 0.06088465 0.098551415 -0.98575485 0.13629036
-0.007406001 0.07889382 0.36080462 -0.9844543 -0.12664695 0.12169734
-0.062628135 -0.054918833 -0.08541426 0.053685926 -0.9125563 -0.40541193
0.012517821 -0.0032123881 -0.20756747 0.3544357 0.93507904 0.0015694991
0.036716137 -0.08085946 0.00064447674 -0.9968737 0.053999353 0.057680435
-0.026883125 -0.010399805 -0.0214405 -0.8088186 0.58788556 0.014248368
-0.118866995 -0.046733193 0.038429704 0.043199766 -0.98921734 0.13993888
0.16520469 -0.025125682 0.0048121596 -0.17815205 0.9701504 -0.16452979
0.20875074 -0.02003576 0.046032097 -0.10661666 0.9933508 0.04344091
-0.08583369 -0.08389714 -0.116820216 0.3862141 -0.39493966 -0.8335834
-0.082900956 -0.08542618 -0.06185189 0.38927907 -0.91356623 0.11772258
-0.04357899 -0.027461026 0.3156582 -0.033648293 -0.99939924 0.00830342
0.25691208 -0.015844136 0.0709365 -0.05176595 0.9985381 0.015556448
-0.0014697416 -0.07086781 -0.18523662 -0.047598843 -0.9980604 -0.04012131
0.034291923 -0.029251602 -0.25328067 0.93172926 0.362727 0.01760072
0.033523723 -0.029395754 0.030492213 0.96251065 0.27058864 0.018843096
0.012519789 -0.015011552 0.3354099 0.6671225 0.73859376 0.09709189
0.07200268 -0.05790447 -0.1133679 -0.91603494 0.04991158 -0.39798096
-0.03185595 -0.067789815 -0.08112713 -0.6895768 -0.72296673 -0.04246062
0.045098476 -0.027385002 0.2982567 0.046375103 -0.9985999 -0.0254465
0.003312563 -0.050204143 0.28990728 0.24245034 -0.96216697 0.12430828
0.05489854 -0.03494528 -0.05237622 -0.06407281 0.99704987 -0.04226386
0.062229473 -0.09171326 -0.017259613 0.915237 -0.22544359 -0.33394083
-0.16321552 -0.04309345 0.02558303 -0.07928443 -0.9967359 -0.015216587
-0.0668043 -0.088080816 -0.0005639035 -0.99724007 -0.033583205 -0.066215366
0.2263064 -0.020078067 0.031053603 0.01452678 0.9850254 -0.17179628
-0.10946937 -0.044371117 -0.06968826 -0.8176836 0.5693703 0.08491752
0.05839568 -0.03731881 -0.07468723 0.10209851 0.913241 -0.3944194
0.02191687 -0.0044717663 0.07361003 0.65078205 0.7592513 0.0044892863
-0.025136055 -0.072590046 -0.052689802 -0.27047598 -0.96244955 0.023100786
0.30004495 -0.022858161 0.10613905 0.0100301355 -0.99370366 0.11159
-0.0419737 -0.019353222 0.3513482 0.26335898 0.91754574 0.29791254
-0.034652654 -0.026064672 -0.21630092 -0.9927993 0.119668856 0.005377865
-0.029294087 -0.053184405 -0.18782204 -0.8473556 -0.5309616 0.008263866
0.020617537 -0.063242845 -0.17838715 0.7053173 -0.7088745 -0.0049398905
-0.011868078 -0.0018939432 -0.14923471 -0.49953425 0.86591107 0.02575952
-0.26527062 -0.02964938 0.07391165 -0.23145224 -0.9728161 -0.0076672793
-0.013348175 -0.069057316 0.12979068 -0.26295015 -0.9647419 -0.011415975
0.13416295 -0.028396599 0.009472106 -0.3975378 0.91202927 0.10082814
0.032031085 -0.023550756 -0.12346706 0.95248806 0.3045561 -0.003459048
0.19850859 -0.028128374 0.07031898 -0.36473083 0.80769676 0.46324652
-0.024406413 -0.0074055693 0.02200419 -0.64732814 0.7621898 -0.005745266
-0.11724497 -0.07711491 -0.06677527 -0.8262575 -0.50595915 0.2475961
-0.06602158 -0.035593342 -0.017256381 0.08957272 0.98411363 0.15328723
0.19151364 -0.039007224 0.026904209 0.09211485 -0.9953568 -0.027923027
0.010933592 0.037817016 0.28622875 0.98778075 0.11965929 -0.09985424
-0.00016736728 0.08515029 0.3753664 0.12895066 -0.4551318 0.8810373
0.0561314 -0.059968404 -0.035887625 0.11904434 -0.98425406 -0.13066117
-0.028106436 -0.046151545 0.21696688 -0.9588475 -0.2824852 0.028522845
0.10489797 -0.021382162 0.34750736 0.39575225 -0.91739094 -0.042119935
-0.080390394 -0.011613758 0.3470228 0.0835084 0.99650526 0.0019158884
0.016006883 -0.069479614 -0.1320248 0.33153987 -0.9426171 -0.03942434
-0.0015348259 -0.052332826 0.28170258 0.14370261 -0.9316444 0.33374882
-0.04892553 -0.04492891 0.026515657 0.06613792 0.82316566 0.5639363
0.03506615 -0.06612902 0.024947217 0.8069719 -0.54054654 0.23791978
-0.07987446 -0.085991174 -0.080162205 0.5442882 -0.8346392 0.08442629
0.26568848 -0.027250478 0.085222185 0.014877119 -0.999474 0.028816316
0.033749547 -0.039243795 -0.25734475 0.9781692 -0.20776543 -0.0042985952
0.03165556 -0.046745855 -0.2499883 0.9797822 -0.19671592 0.03646376
-0.0064356793 -0.07455529 -0.009358074 -0.07788654 -0.99694765 0.0053851237
0.11868436 -0.04723268 0.018023854 0.030022878 -0.99953234 0.0058185053
0.02702745 -0.053774122 0.2046426 0.9366178 -0.34874493 0.03352822
-0.2477119 -0.019125696 0.043058705 -0.05623965 0.94931656 -0.30924925
-0.057708483 -0.027129723 0.3286678 -0.027729133 -0.999591 0.00700092
0.3081392 -0.022990631 0.09230064 0.18315393 -0.97997105 -0.07817518
0.011248704 -0.002315074 -0.2824507 0.505134 0.8598849 -0.07373988
-0.106113836 -0.009495301 0.36329004 -0.07222814 0.9919412 0.10409471
-0.0032909676 -0.012630596 -0.3415086 -0.20252152 0.95798844 -0.2030843
0.022020396 -0.011009576 -0.30526307 0.605899 0.7645601 -0.21985069
0.03027196 -0.037435338 -0.32103163 0.9773422 -0.070494026 -0.19958146
0.047937058 -0.035161663 -0.049574006 -0.02580111 0.9996462 -0.0064674374
0.019501226 -0.0058618602 0.23508047 0.678544 0.733403 0.04120796
0.14759654 -0.045548156 0.027353581 0.15238357 -0.98828393 0.008603149
0.02501932 -0.07211323 -0.065025926 0.38120022 -0.92386025 -0.034184474
0.028573204 -0.012176219 0.094744705 0.90271205 0.4302125 -0.0053031025
0.023677126 -0.009711629 -0.19554521 0.69203764 0.7217846 -0.010527977
-0.028963147 -0.014564543 -0.21198225 -0.752863 0.6581536 -0.0055837003
0.011403489 0.057472937 0.32772392 0.99914753 0.03819068 0.015672663
-0.006599475 0.031824093 0.3439334 -0.9211758 -0.12061477 0.36998275
-0.013924956 -0.012204978 -0.33257613 -0.62242293 0.7777955 -0.08731447
0.0032623992 0.047908496 0.27834934 0.6235361 0.52842 -0.57617277
0.031253543 -0.020524798 -0.10095962 0.99551713 0.094560154 0.002005131
0.16862886 -0.04279385 0.04697849 0.0692323 -0.9972981 0.024561144
0.11765177 -0.057169564 -0.07088647 0.9703464 0.18734425 0.1527419
-0.025619416 -0.016189713 0.24375595 -0.79850185 0.60108703 0.03300083
-0.08100832 -0.032290936 -0.04183201 0.047500335 0.99887115 -0.00041152223
-0.014427465 -0.0032209111 -0.20488127 -0.20912781 0.9777699 -0.015217976
0.017125059 -0.0041065817 -0.09262432 0.16698526 0.98594946 -0.0044305744
-0.052303378 -0.059869185 -0.044749092 -0.23354685 -0.9682007 -0.089684404
-0.01856833 -0.065659806 -0.24964471 -0.5892776 -0.8079294 0.0014053948
0.013376704 -0.0032995963 -0.08474843 0.5168117 0.85609555 -0.0024754351
0.0031267195 0.0481147 0.35494077 0.7899667 -0.14779331 0.5950712
0.07351248 -0.07885571 -0.10907923 -0.82309633 -0.5585178 -0.10281169
-0.08173121 -0.038523767 0.027656917 0.14687404 0.9482821 0.28140548
-0.113490336 -0.04936488 -0.11559231 -0.68826944 0.5146597 -0.5112833
-0.18820763 -0.0235525 0.04193733 0.042627227 0.99754256 0.05560338
0.08992907 -0.05417453 0.032020714 0.309219 -0.9381065 0.15601231
-0.03428303 -0.037992187 0.13332988 -0.9991221 -0.034020096 -0.024445988
0.18505926 -0.023435054 0.03193785 -0.03568817 0.9992992 0.011283591
-0.012393655 -0.057401426 0.24656856 -0.47675577 -0.82638973 0.29963982
0.0012755363 -0.07694735 -0.29010528 0.02642909 -0.24247876 0.96979666
-0.19451277 -0.025041573 0.00699807 -0.24289337 0.8226373 -0.51407266
-0.009352299 -0.004281463 0.3147803 -0.98826164 0.04660374 0.14548871
0.17115608 -0.023813331 0.019552892 -0.032461204 0.99947256 -0.0008921683
0.12509568 -0.047079355 0.0071530417 0.034152 -0.99941313 -0.0026534712
-0.03209922 -0.06886481 -0.05832647 -0.5543588 -0.82995015 -0.062202107
-0.08388628 -0.032114554 -0.03735191 0.054033045 0.9984801 -0.010855363
0.12713803 -0.046846 -0.00887482 0.032878254 -0.99940133 -0.010766256
0.09987778 -0.018833978 0.3698858 -0.0027581062 -0.8656124 0.5007071
-0.038283434 -0.06897104 -0.022333086 -0.117063954 -0.90748936 -0.40343404
0.011596398 0.015285833 0.26959375 0.99670845 0.07811119 -0.021702621
-0.017785441 -0.05453997 -0.34996843 -0.75910944 -0.59079695 -0.27333462
-0.0050486163 -0.00018627627 -0.049670126 -0.024497278 0.9996598 -0.008953862
0.17676857 -0.04194242 0.027742427 0.15150702 -0.9879765 -0.030791352
-0.12956336 -0.046929866 0.031105869 -0.02038141 -0.99978745 0.0031045035
0.031511363 -0.02212735 0.1072222 0.9975332 0.07013905 -0.0028463549
0.034904726 -0.018493202 0.34396183 -0.16741753 0.9698038 0.177347
-0.09340551 -0.07130001 -0.025298763 0.029549537 -0.6555716 0.7545546
0.11105579 -0.0480317 -0.009880144 0.36145973 -0.9283152 0.087050155
-0.034532823 -0.039356135 -0.24304049 -0.9886622 -0.14968872 -0.011849886
-0.017715689 -0.021088516 0.34352615 0.14751199 0.89711535 0.41644242
0.025560666 -0.0574766 -0.16565493 0.74540067 -0.6665225 -0.0112077
-0.11160253 -0.043841857 -0.09207681 -0.7210965 0.6922888 0.027496645
-0.052072264 -0.026956672 0.34424207 -0.05108717 -0.9961467 0.07128796
-0.31003267 -0.017778805 0.07762798 -0.5965407 -0.566371 -0.56865025
0.0363327 -0.027683536 0.32385787 0.06040582 -0.9981734 0.0009671633
-0.031653207 -0.027383639 0.09144488 -0.9986818 0.051247664 -0.0029029674
0.2677952 -0.027270576 0.08302343 0.021567447 -0.9996069 0.017914403
0.035814255 -0.055033464 0.038964335 0.9595288 -0.039282467 0.2788572
-0.023783326 -0.008525084 -0.04991783 -0.47771817 0.8774713 -0.04277164
-0.016105384 -0.010368865 -0.32108322 -0.564704 0.80946624 -0.16085325
0.026280157 -0.06926415 -0.10395516 0.6492276 -0.7535121 -0.10355189
0.0023517571 -0.07010047 0.17698662 0.04512828 -0.99882704 0.017549885
-0.117485665 -0.047027726 0.034485385 -0.015346807 -0.998777 0.04700055
-0.0011972062 0.058160584 0.36148146 0.1357142 -0.46071824 0.8771091
-0.034687694 -0.037434563 -0.13565528 -0.9649109 -0.26228216 -0.012448612
-0.03134683 -0.031339884 0.1976801 -0.99881727 0.043870475 0.02096364
0.032757606 -0.024437096 -0.099871576 0.90147334 0.43278426 -0.0066073425
0.012192277 -0.030483395 -0.36749724 0.72673476 0.43310666 -0.53317463
0.010268157 0.012150757 0.32168588 0.887899 -0.33428648 0.3160505
-0.17716655 -0.026784576 0.05085223 0.07258351 0.9806892 0.18160468
0.06763728 -0.012979142 0.3328436 -0.23367904 0.97212195 -0.019313093
0.022240683 -0.07328848 -0.058607083 0.22496855 -0.9743607 -0.0032262614
0.046269163 -0.07283794 0.013468814 -0.18127716 0.46744794 0.8652346
-0.05817085 -0.059959136 -0.0386012 0.07850507 -0.98779076 -0.13455966
0.023639841 -0.07222319 -0.024078663 0.27949923 -0.9600826 0.01102456
0.036837224 -0.016896531 0.33980176 -0.20208007 0.9581132 0.20293532
0.031157317 -0.02201378 -0.20596361 0.99011904 0.14011176 0.0057410467
-0.011612893 0.004788026 0.27966726 -0.99936026 0.035415865 0.0049788076
-0.0784197 -0.04224124 -0.08759408 0.34582064 0.8931684 -0.28750357
-0.09029217 -0.031837437 -0.02514431 0.07200534 0.99692446 0.030933317
-0.0065313186 -0.07450655 -0.0021989197 -0.06137695 -0.9981141 0.0010127958
0.015714224 -0.06846009 -0.29929474 0.6969148 -0.7146568 0.059795406
0.024266914 -0.059980776 -0.29569256 0.73017573 -0.6832577 -0.0015263988
0.119721115 -0.047106635 -0.009059293 0.03613142 -0.99932843 -0.006099417
0.093400195 -0.0927839 -0.10068695 -0.11836822 -0.9928176 -0.0173837
-0.15385287 -0.04334312 0.0052941996 -0.120919116 -0.99187124 -0.039622787
-0.06149013 -0.052747283 0.03563543 0.22312674 -0.8076812 0.54577065
-0.01780089 -0.004239538 -0.27507842 -0.6017292 0.7985618 -0.014865804
-0.046360582 -0.07848503 0.019865463 0.30228624 0.6943815 0.6530371
0.010579495 -0.069872186 -0.2743136 0.3825505 -0.9238956 0.008486711
0.06813741 -0.044654332 0.032894745 -0.13622883 0.9125925 0.38550824
-0.032121245 -0.04752212 -0.21748863 -0.8845548 -0.46593207 -0.021680601
0.013693844 -0.06882219 -0.23204902 0.66590464 -0.7460119 -0.0061071073
-0.07818575 -0.020401808 0.36371735 0.17993794 -0.8186618 0.5453579
0.02879949 -0.031957354 0.25155962 0.9323348 -0.3410393 0.12018378
-0.028051738 -0.06024593 -0.1276846 -0.8644875 -0.4817654 -0.14339972
-0.098923594 -0.044978417 0.041545685 -0.06213212 -0.8052275 0.5897018
-0.0031764198 -0.07683752 -0.0994113 -0.21121605 -0.97693944 -0.031259794
0.021630058 -0.05439694 -0.34098402 0.7641259 -0.6110686 -0.20665617
0.100806974 -0.0110521335 0.3388386 0.17790139 0.94691944 -0.26775876
0.0029442597 0.039158225 0.3519485 0.68731886 -0.42087647 0.5919931
-0.027879417 -0.01376954 0.12014217 -0.82717896 0.5619359 -0.0017418014
-0.13419618 -0.04655832 0.0035985282 -0.06745761 -0.997721 0.0015147894
0.118825726 -0.050609455 -0.10029752 0.81130403 0.58444816 -0.014357934
0.25961313 -0.020515272 0.0933872 -0.24417815 0.858652 0.45065925
-0.030720614 -0.02709884 0.2149655 -0.97432095 0.20749813 0.08742514
0.013737991 -0.015904507 -0.34232298 0.5384522 0.7903002 -0.29239514
-0.045313798 -0.027136339 0.343737 -0.008385782 -0.9992193 0.038605094
-0.03240428 -0.04523836 -0.18504128 -0.9623296 -0.2616172 0.07401463
-0.034340724 -0.06780977 -0.043343425 -0.7078115 -0.7050596 -0.043519992
-0.0034789352 -0.0704482 0.14961007 -0.04809333 -0.9988415 0.0016155578
-0.118337035 -0.031315636 -0.030850453 0.019514 0.99794734 -0.060993623
0.015990086 -0.07274301 -0.11112448 0.36951792 -0.9121579 -0.17726967
-0.10298315 -0.05040899 0.0027506407 -0.38599205 -0.9196174 0.07289752
0.015726147 -0.0120356055 0.29591006 0.7170426 0.6850177 0.12884359
-0.2589366 -0.028208127 0.051058978 -0.26944587 -0.9427369 -0.19658573
-0.17355388 -0.023885723 0.0051096007 0.030987663 0.9945189 -0.099860094
-0.007948235 0.08207804 0.35906628 -0.9887252 -0.08650742 0.1222253
0.03094968 -0.020393874 -0.23381712 0.9534821 0.30138218 0.006372454
0.007882307 -0.0016209843 0.3224663 0.9947666 -0.011566347 0.10151671
-0.1623811 -0.030148404 -0.018051129 -0.4014391 0.5819675 -0.70722026
-0.012510955 -0.064806744 -0.33243862 -0.5101443 -0.83154464 -0.21974143
0.06969275 -0.062952995 -0.06794548 -0.9154382 -0.39804575 0.059435874
-0.084712915 -0.087921344 -0.07108686 0.44354388 -0.8825272 0.15625149
0.15888214 -0.043648392 0.027467472 0.12580872 -0.9919394 -0.01511309
0.011318191 -0.07983556 -0.3035489 0.9909852 -0.032510653 0.129967
-0.042465985 -0.03542779 -0.039494373 -0.0041650827 0.9998639 0.015958522
-0.055593014 -0.061786026 0.0112653095 0.017243726 -0.9421299 0.3348043
-0.003172591 -0.074623175 0.0014366573 -0.039601963 -0.99917394 0.009117219
0.044505004 -0.09338465 0.019349167 -0.35762063 -0.9038052 0.23503956
0.1593255 -0.027077084 -0.005396155 -0.0171756 0.99392503 -0.10871055
0.01981818 -0.013226673 0.2788422 0.79212946 0.6000076 0.11190086
0.19231854 -0.038058467 0.01394295 0.2606 -0.94610876 -0.19226496
0.018537607 -0.07352357 -0.09883905 0.26352304 -0.96015155 -0.09308354
-0.029632367 -0.05496326 0.08322659 -0.87787 -0.46921474 0.09582116
-0.02330107 -0.03351042 -0.3455361 -0.9747069 0.025997737 -0.2219698
0.28248453 -0.015187261 0.09505166 -0.11272582 0.9861967 0.1212807
-0.22646677 -0.034270402 0.035785623 -0.17667569 -0.98111415 -0.078745425
-0.0024122004 -0.00012379131 0.15972905 -0.02981639 0.9995125 0.00925757
-0.08428791 -0.037948262 0.027052108 0.14697315 0.948268 0.2814013
-0.009137565 -0.08799248 -0.30965877 -0.71805674 -0.6748495 -0.17021342
0.07381646 -0.05191907 -0.11256961 -0.7135485 0.58828336 -0.38048807
0.31299347 -0.008599051 0.11366123 -0.6364359 0.7203495 0.2757643
0.032034956 -0.046396524 0.13954043 0.9558556 -0.29383343 0.0014001791
0.030615807 -0.017020274 -0.13343336 0.81161684 0.58419013 8.669004e-05
0.032017782 -0.04198678 -0.13930345 0.975812 -0.2184916 -0.0072363988
-0.030572271 -0.050981943 -0.15075721 -0.9699226 -0.24341305 0.0004883949
-0.020329893 -0.039116398 0.29071853 -0.93553966 -0.32832253 0.13026837
0.10853864 -0.0639897 -0.12091268 0.1902578 -0.022292092 -0.9814811
0.032970216 -0.027890936 0.32518345 0.10330293 -0.99464643 0.002633227
-0.120950595 -0.060586795 -0.10899305 -0.9425773 0.3020919 -0.14243796
0.13632508 -0.041076127 0.053430278 -0.2501997 -0.64318806 0.7236776
0.006506366 -0.072167575 0.060855616 0.13885677 -0.98754317 0.07400856
-0.030532526 -0.03969987 0.21804078 -0.98526365 -0.10816161 0.13250154
-0.11915196 -0.071834475 -0.066320494 -0.87185323 -0.2726424 0.40686363
0.19951485 -0.033968702 0.071956106 -0.1585399 -0.8379765 0.522169
-0.12033568 -0.031096686 0.00202332 0.04593387 0.9987797 0.018143421
-0.06398986 -0.06598626 -0.0020928476 -0.98795843 0.061747402 0.14186375
0.002207936 -0.027806876 0.37087086 0.6643849 -0.3437763 0.66363436
0.0020149364 -0.047112767 0.30287597 0.2289756 -0.9678262 0.10432013
-0.007917695 0.07019612 0.35218263 -0.99810386 -0.049299043 0.036856253
0.12583852 -0.046750918 -0.022258013 0.022285836 -0.9996746 -0.012408986
0.032744143 -0.06513211 -0.08630424 0.70720303 -0.68936384 -0.15697604
-0.08274898 -0.08455088 -0.056821756 0.5443673 -0.8193802 0.17966713
0.046644393 -0.017510219 0.29594395 0.06445976 0.97367066 -0.21865606
0.017681202 -0.011866984 -0.32314345 0.54611164 0.8337055 -0.08183636
0.027556956 -0.041865993 0.24450512 0.9953062 -0.08964985 0.0364492
0.0040521384 -0.06959303 0.18508115 0.09861033 -0.993929 0.048797097
-0.031657048 -0.027852012 0.08836057 -0.99892205 0.045627948 -0.008535711
0.0058601396 0.0001382594 0.0010063543 0.048981514 0.9987718 -0.0074676233
-0.023579549 -0.008784623 0.17056826 -0.5914841 0.8061112 0.018198267
-0.020756532 -0.07244728 0.037513435 -0.18161213 -0.970731 0.15715723
-0.02409587 -0.008256327 -0.100576125 -0.44735995 0.8943514 -0.0021698284
-0.212681 -0.02013089 0.030892372 0.082117766 0.99577576 -0.041077875
-0.2694979 -0.02443992 0.10252771 0.29135802 -0.4391637 0.8498504
0.004964955 -0.060756788 0.23863158 0.24722794 -0.91754854 0.31142104
0.019825557 -0.07318719 -0.024590325 0.21401022 -0.97679937 0.007906984
0.034910936 -0.04557771 0.044796694 0.99668527 0.01146699 0.08054268
-0.126251 -0.037605524 0.04794138 0.29628542 0.6501042 0.6996995
-0.09809035 -0.05225715 0.008344535 -0.5574133 -0.8220531 0.116272286
-0.06451688 -0.09451813 -0.004805032 -0.8149794 -0.57861507 -0.031832833
0.05854785 -0.035342935 -0.06571751 -0.033954944 0.9983272 -0.046796586
-0.040662758 -0.09257791 0.0091444785 0.58757913 -0.8090974 0.010588545
0.11521902 -0.08506662 -0.10498896 0.69139504 -0.72132206 -0.040834118
0.007504978 -0.00030902785 0.19205539 0.069320664 0.99758434 -0.004475247
-0.09079683 -0.021911992 0.32423118 -0.37512833 -0.8520823 -0.36501297
0.03145783 -0.019472385 0.1521541 0.99484754 0.1008115 0.010747559
0.10735352 -0.010209906 0.3462365 0.25181374 0.93262166 -0.25847
-0.30995253 -0.022796217 0.088512555 -0.08492026 -0.9889532 -0.121491425
0.028149448 -0.020994578 0.34959185 -0.30492154 0.8517993 0.42598224
-0.028190004 -0.054346588 -0.28396735 -0.9161436 -0.39864603 -0.041979663
-0.014720152 -0.06980101 0.0788769 -0.2203193 -0.9750706 0.026394276
-0.075507455 -0.07620215 -0.050553016 0.76826096 -0.6077641 0.20099209
-0.15082753 -0.04374624 0.0063329856 -0.120977625 -0.9923511 -0.02456802
-0.00707651 -3.8706625e-05 -0.018400688 -0.061506517 0.9979924 -0.01510633
-0.032012753 -0.035483047 0.08328929 -0.9947328 0.10248468 0.0018745346
0.03293556 -0.034243952 -0.17060868 0.9983634 -0.05325742 0.02083986
-0.08291414 -0.08738817 -0.108135745 0.52646124 -0.82532763 -0.20413913
-0.030695045 -0.02389225 0.20254727 -0.97238624 0.23215395 0.023866016
-0.20400694 -0.021184962 0.028484402 0.16290067 0.975175 -0.14999029
0.25730512 -0.017211502 0.051708538 0.15235041 0.8869565 -0.43600163
0.22078393 -0.03303693 0.031539124 0.4216355 -0.8372554 -0.3481764
-0.09880296 -0.011254182 0.34055468 -0.08944599 0.98968977 -0.11186412
0.027055204 -0.056418434 -0.21436554 0.88148123 -0.4718647 0.018292457
0.0483039 -0.035208482 -0.052705895 -0.015064113 0.99973845 -0.017207412
-0.025007896 -0.059539855 0.16094473 -0.73857975 -0.6734031 0.03206412
-0.02091046 -0.030592918 0.3186656 -0.39108184 -0.908702 0.1459988
0.025899414 -0.06932216 0.052195676 0.61977696 -0.77117264 0.14549665
-0.012898727 -0.07515848 -0.07796523 -0.2067537 -0.978361 0.007912161
0.018163916 -0.06682258 0.133355 0.46263248 -0.88654876 0.0015692087
0.025951026 -0.057223894 -0.19618289 0.7470837 -0.66437554 0.021704528
-0.03043906 -0.01662216 -0.21502449 -0.825885 0.5638372 0.0012854045
0.033543188 -0.02772237 -0.02790911 0.9159402 0.4000432 0.031921502
0.0010500262 -0.07452727 -0.118377954 0.014403022 -0.9962179 -0.08568848
-0.009929974 -0.0009951079 -0.13995843 -0.5090458 0.86055255 0.017936932
0.09199072 -0.07854536 -0.12193636 0.025391687 -0.063738 -0.9976436
0.00010748149 -0.07722488 -0.0585927 0.0661371 -0.99743664 0.027311707
0.0355357 -0.030762352 -0.04653826 0.8710985 0.4906974 0.020084074
0.070758544 -0.075087726 -0.08183734 -0.99528617 -0.07001143 0.06711074
-0.10691885 -0.038214575 -0.05687182 -0.57082766 0.742226 -0.3510789
0.10460364 -0.048281457 0.02060618 0.13127027 -0.99060726 0.03827992
0.0038063042 -0.0533364 0.27583492 0.23452792 -0.9235045 0.3035394
-0.040687177 -0.016647665 0.2946183 0.026377544 0.99036306 -0.13596033
-0.048299074 -0.060244676 -0.049809072 -0.46026796 -0.88282186 -0.0936961
-0.11185951 -0.047688 -0.002133208 -0.14007644 -0.9901364 -0.0029158986
0.0071522905 -0.07919608 -0.2946767 0.8727159 0.039070867 0.48666257
-0.008261619 0.049101856 0.29962882 -0.9882761 0.07816665 -0.13114986
0.047014214 -0.038757045 -0.013089236 -0.019355418 0.99371463 0.110256895
0.18279389 -0.038844533 0.0043890225 0.111619085 -0.9915376 -0.06629062
-0.030158082 -0.017331105 -0.2839318 -0.7445447 0.6628175 -0.07953731
-0.021112433 -0.0064539653 0.11016751 -0.6871318 0.72628087 -0.019129517
-0.025036065 -0.059098285 -0.28279677 -0.7134896 -0.70053816 -0.013374665
0.0049191806 0.01364853 0.24594693 0.4448247 0.5926601 -0.67147964
-0.0068633547 0.0593527 0.35427105 -0.8935248 -0.16780868 0.41647768
-0.06860618 -0.034803312 -0.059061676 0.026940055 0.99776405 -0.061165117
0.031288017 -0.02962437 0.28822225 0.30039632 -0.9538126 0.0018701924
0.018551527 -0.041803814 0.29315388 0.74663526 -0.6371537 0.19123554
-0.031242993 -0.027235026 0.3443957 -0.0048378767 -0.99859875 0.052698575
-0.04203416 -0.04312976 0.023463422 -0.10222683 0.97094744 0.2163579
-0.07488173 -0.058622763 0.004630204 -0.17161003 -0.9851642 -0.001202593
0.051972542 -0.095307596 0.018186029 -0.16082999 -0.87894267 0.44899163
0.21868496 -0.034145676 0.0316847 0.23345815 -0.9655988 -0.11452636
-0.038448833 -0.04293061 0.027488472 -0.42621064 0.8497373 0.3103079
0.03482424 -0.03964698 0.04473312 0.9998921 0.014616343 0.0014036571
0.07317591 -0.039143782 0.021141453 -0.14778474 0.9837705 0.10176056
0.051038545 -0.06550567 -0.022667086 0.5651896 -0.35608363 -0.744154
0.021994686 -0.036683705 0.29159552 0.77477306 -0.54615134 0.318505
-0.1509053 -0.040965095 -0.024130587 -0.5007351 -0.6289663 -0.59469813
-0.011556342 0.013814504 0.29543024 -0.999102 0.042327985 0.0018599007
-0.029680885 -0.018158074 0.33652925 0.23065972 0.9665982 0.11173195
0.079952165 -0.039052658 0.027639065 -0.16282636 0.96771455 0.19239558
-0.032923535 -0.022730948 -0.21327183 -0.83516127 0.5497447 0.016923433
-0.08800174 -0.05702678 0.0038633468 -0.42052317 -0.9023418 0.09454927
-0.05993174 -0.0519425 0.035076167 0.33486632 -0.030910073 0.9417585
0.017818218 -0.06607186 0.18304344 0.5164367 -0.85519475 0.043988977
-0.00064823776 -0.07464311 0.004706106 -0.011785409 -0.9998299 0.01418826
-0.002984848 -0.044109702 0.31675503 -0.43365538 -0.85389113 0.28777233
-0.16967414 -0.04274865 0.040152162 -0.0687909 -0.99762785 0.002565007
0.0032878378 -0.07688938 -0.060420614 0.19306675 -0.98072493 0.030064031
0.033504162 -0.030423416 0.14672092 0.98304194 0.17809536 -0.043710086
-0.11765577 -0.07129284 -0.11831257 -0.67972 -0.11699362 -0.724081
-0.025284918 -0.029153725 0.3167036 -0.38945854 -0.9181312 0.073193
0.010197367 -0.08532608 -0.31511602 0.92756265 -0.21929875 -0.30254853
-0.025467798 -0.07410408 0.0056165196 -0.011813028 -0.999585 -0.026272357
-0.027719496 -0.023475986 0.23054853 -0.99000955 0.13952221 0.020363355
0.0022758527 0.022761289 0.25339156 0.4964414 0.60090995 -0.62646073
-0.03721293 -0.03809591 -0.09112604 -0.5222585 0.7796361 -0.34556276
0.23610377 -0.029373443 0.08250289 0.0992448 -0.91221374 0.397513
-0.010676334 0.04946279 0.31325087 -0.9827485 0.15292464 -0.10401665
-0.028575387 -0.054981 0.11982259 -0.8405848 -0.54162776 -0.007516215
-0.002825352 -0.049613878 -0.37615138 -0.49538285 -0.545778 -0.67581224
-0.14716105 -0.03322131 -0.029659396 -0.5084697 0.07853676 -0.85749084
0.13827345 -0.030927142 0.035646193 -0.096783645 0.9925378 0.07417227
0.01635187 -0.07394019 -0.03516682 0.08896875 -0.9958421 0.019571604
0.06319963 -0.014036013 0.33907354 -0.25718522 0.9659083 0.029614007
-0.006021022 -0.07472475 -0.01655365 -0.104212776 -0.994277 0.023515766
