ply
format ascii 1.0
element vertex 681
property float x
property float y
property float z
property float nx
property float ny
property float nz
end_header
-0.015808268 -0.075853765 0.13060659 -0.35749125 -0.9304802 0.08004123
-0.25308654 -0.026607964 0.052079428 0.008772432 0.9895183 -0.14414118
-0.14640468 -0.035232313 0.016777698 0.058447827 0.9980294 0.022827853
0.09846467 -0.06363928 0.03757639 0.39715177 -0.90857774 0.1294488
0.030880852 -0.047099307 0.19313422 0.99343765 -0.10377616 0.048083257
0.09985138 -0.0586066 -0.06267367 0.047416653 -0.99871373 -0.017959353
-0.057884894 -0.06684635 -0.08092395 -0.1611352 -0.9868844 -0.009727895
0.020087661 -0.06196745 -0.3295558 0.83312434 -0.51953316 -0.18970817
0.28034556 -0.026205482 0.070322484 0.18994392 0.931619 -0.30985063
-0.1904934 -0.051452998 0.06842135 -0.08943147 -0.995834 0.017793603
-0.10575045 -0.038608298 -0.017111994 0.11085215 0.992799 0.045408856
0.08234564 -0.024189662 0.3355209 0.13864033 -0.98846084 -0.061024666
-0.3133791 -0.03287897 0.15772437 0.2805208 0.35866284 0.89031965
0.0069309263 0.050085664 0.26007393 0.837344 0.37728244 -0.3956172
0.0067227315 -0.00043386946 -0.2334954 0.2080737 0.9780747 -0.008670981
-0.020972257 -0.04443082 0.25015128 -0.7645663 -0.5995847 0.23650914
0.07298164 -0.011465846 0.32272723 -0.04381126 0.99885714 -0.019105032
-0.0053016664 0.07292878 0.3501444 -0.8431549 -0.11229067 0.5258143
0.24749549 -0.06603032 -0.012544924 0.89139104 -0.45157155 0.038796593
-0.039247274 -0.03535497 -0.21175618 -0.99254245 0.11850959 -0.028548317
0.027992427 -0.06964131 -0.20587431 0.79642236 -0.5965147 -0.099406965
-0.07544517 -0.06546815 -0.036750864 -0.2179822 -0.97579795 -0.017383486
0.102245145 -0.058845423 -0.018234467 0.06812653 -0.9972616 -0.028775355
-0.07312866 -0.0629254 -0.08134631 -0.100419864 -0.99382603 -0.047177013
-0.21334067 -0.050155133 0.079233386 -0.0042594858 -0.9987465 0.049871795
-0.036383536 -0.026930152 -0.123590305 -0.8065515 0.5911424 -0.005021256
0.033865172 -0.019725535 0.013180409 0.8594894 0.51034963 0.028657328
0.07949939 -0.043637913 -0.016976535 -0.10446346 0.9922628 0.06709614
0.030943537 -0.027843693 -0.28205147 0.9815913 0.17655942 -0.0728375
0.21526729 -0.06596599 0.036665253 -0.93478453 -0.22158626 0.27762827
-0.011494208 0.052964747 0.28608873 -0.99381614 0.070749655 -0.08558047
0.118468456 -0.078896135 -0.05653387 -0.8632923 -0.49714127 0.087045826
-0.014695803 -0.003758268 -0.010827678 -0.08763549 0.99597317 -0.018905496
0.010569744 0.028951667 0.25363356 0.9751098 0.085613735 -0.20452666
0.0026454981 -0.0029113127 0.17090432 0.09839029 0.99415755 -0.04438637
-0.028498465 -0.052717496 -0.31132302 -0.97237396 -0.07809586 -0.21997707
-0.24039759 -0.03233508 0.10735475 0.18201573 0.98004216 0.079923026
0.11458075 -0.08055963 -0.09776349 -0.68793476 -0.725678 0.01171471
0.030589936 -0.045840465 0.19777572 0.96948224 -0.2164678 0.11509051
0.32041204 -0.019511875 0.1385585 -0.33225846 0.9431872 0.0015111489
-0.035443295 -0.033678595 0.14037356 -0.99764067 0.06513831 0.02168486
-0.030157082 -0.04706976 -0.3078053 -0.9632595 0.039031003 -0.26572093
0.03968357 -0.036953717 -0.21366325 0.9827302 0.17724413 -0.053158242
-0.113607444 -0.05291383 0.05678985 0.35475317 -0.5939713 0.72204447
0.030840503 -0.01986302 -0.25851166 0.94079566 0.3372084 -0.034553453
-0.024884958 -0.018299641 0.2573042 -0.87900764 0.47626337 -0.022775413
0.2205001 -0.036927927 -0.005234083 -0.088883206 0.9650513 -0.2465272
0.008095532 -0.0044916673 -0.29296163 0.3805504 0.88479626 -0.26891807
0.12558697 -0.06382918 0.009698137 -0.26013792 -0.79420465 0.5491513
0.0074691246 0.046305977 0.33659646 0.9963399 -0.030238649 0.07995226
0.1996479 -0.0354969 0.0804623 -0.116690405 0.9882306 0.09891203
-0.08099718 -0.06375346 -0.009109551 -0.28152674 -0.95942056 -0.01596448
0.07145535 -0.054130822 -0.117713585 0.5187533 -0.3726857 -0.7694156
-0.039196935 -0.036608852 -0.014365829 -0.9957608 0.09054926 0.016166527
-0.33399466 -0.026050648 0.13014066 -0.9858381 0.10871493 -0.12768812
0.038878936 -0.032856815 -0.20841943 0.9830298 0.1827881 -0.015524839
0.036367573 -0.051130272 0.05108528 0.9743839 0.09937716 0.20174278
0.008831841 -0.0923955 -0.29039463 0.9219147 -0.30754468 -0.23556228
0.14537473 -0.038982883 0.037748907 -0.050651297 0.99774075 0.04413529
-0.0341587 -0.021462487 -0.23071823 -0.74964356 0.6610336 -0.03269739
0.017956352 -0.0060519855 -0.15788642 0.53962916 0.84184563 0.009815033
-0.0037808008 -0.07178821 -0.3367599 -0.14278255 -0.91626906 -0.37425137
-0.009789935 -0.046131257 -0.36676413 -0.7177917 0.07383807 -0.6923316
0.23466213 -0.031257145 0.02787075 0.09264316 0.991421 -0.09220445
-0.08455438 -0.0655484 0.044269 -0.03928007 -0.9954597 0.08670172
0.029483408 -0.050553445 0.195449 0.90767485 -0.34496665 0.23900689
-0.23243636 -0.07682247 -0.02717305 -0.25528136 -0.9354536 -0.24445462
0.03856986 -0.05640812 -0.17435473 0.95478517 -0.28751656 -0.075626984
-0.14410026 -0.049876235 0.0732535 0.36159238 -0.41213822 0.8362972
-0.022859994 -0.030775975 0.30900738 -0.09535151 -0.9953738 0.011793636
0.008391552 -0.0017596513 -0.08640771 0.42838693 0.9035774 -0.005706509
0.07885537 -0.011445824 0.3176927 -0.009989699 0.999519 -0.02935904
0.032379333 -0.02125346 0.1276603 0.9604616 0.27454114 0.046267353
-0.023667866 -0.038025085 0.2484678 -0.988479 -0.12481931 0.08561107
-0.016405955 -0.07004213 -0.32065752 -0.6638601 -0.703907 -0.25259602
0.010907588 0.07759489 0.32304478 0.9941129 0.0047327154 0.10824569
0.037552632 -0.04086593 0.11334816 0.952167 0.30470166 -0.023130033
0.07206852 -0.06596739 -0.041113418 0.09629617 -0.9952477 -0.014457334
-0.30594176 -0.024024092 0.14021575 0.2693723 0.95875657 0.09068805
0.057722997 -0.06997178 -0.039331473 0.2682753 -0.9604595 -0.07447166
0.19611554 -0.05127153 0.05340489 0.054610595 -0.99845445 -0.0103142345
-0.29632393 -0.023299642 0.11853166 0.058935482 0.9962331 0.06360988
0.15803154 -0.03902589 0.054214604 -0.07570831 0.9945119 0.07221046
0.011101875 -0.029910656 0.34717903 0.59982616 -0.5344505 0.59545887
0.041801836 -0.04375308 -0.19218712 0.99694526 -0.07511773 -0.021388322
-0.0002908801 -0.0024141946 -0.28522116 0.04294954 0.9764314 -0.21151122
0.13539119 -0.06577088 -0.12455236 0.17495856 -0.15589698 -0.9721551
-0.04777171 -0.0146691995 0.30197343 0.15481904 0.9844964 -0.08244947
-0.013532947 -0.0023630601 -0.2482015 -0.50202465 0.86377364 -0.043200195
0.28968522 -0.035053287 0.0635504 0.4022754 -0.6030401 -0.688852
-0.009669035 0.008493655 0.3185031 -0.92276996 -0.17039001 0.34563407
-0.00082169275 -0.0091119055 0.34448987 -0.20841491 0.73407245 0.6462978
-0.23764716 -0.030473087 0.08435161 0.15662083 0.9829354 0.09647723
0.26799354 -0.02725745 0.10911552 -0.09831176 0.9928283 0.06802061
-0.10836505 -0.038743038 -0.06333637 -0.014571128 0.9988844 -0.044917487
-0.026910543 -0.082180545 -0.105071284 -0.15348549 -0.9879027 0.022144
0.24361382 -0.028371597 0.046137087 -0.09450531 0.9805272 -0.17214884
-0.14139685 -0.040543795 -0.061772816 -0.4130772 0.80848116 -0.4191961
-0.23579499 -0.044163074 -0.031233262 -0.19335602 0.9264035 -0.32309434
-0.041346278 -0.09471669 0.018400418 0.41512287 -0.16813377 0.894094
-0.023676235 -0.08436465 0.023945777 -0.2528782 -0.9670345 0.029947927
0.06683711 -0.043016497 -0.038513586 -0.05251769 0.99574697 0.07569598
0.15470695 -0.038197786 0.0396777 -0.2144605 0.9711777 0.104021944
0.26338127 -0.042099185 0.08435279 0.082592815 -0.99655765 0.0071621495
-0.01369979 -0.0039358367 0.2144365 -0.73401284 0.67879504 -0.021502359
-0.030431958 -0.046338055 0.19538435 -0.9298607 -0.36075094 0.0722339
0.17215575 -0.053712897 0.025586786 0.1615737 -0.984647 -0.066062815
0.016341586 -0.07919527 -0.17482397 0.4514538 -0.88696885 -0.09734335
0.009634851 -0.060478974 0.23381801 0.32152203 -0.89918876 0.296788
-0.007025619 0.059459414 0.34359932 -0.94851804 -0.031117458 0.3151909
-0.077506624 -0.03996346 -0.038998596 0.11434217 0.9854719 0.12558241
0.018174976 -0.033797752 0.299897 0.7424053 -0.6603333 0.1131119
-0.1287708 -0.0471821 -0.09497287 0.051597793 0.9923736 -0.1119479
0.018304449 -0.08401797 -0.1231689 0.43986 -0.8870837 -0.14002012
-0.15822694 -0.054461196 0.06761729 -0.0064740875 -0.9994954 0.031096973
-0.14407218 -0.053926874 -0.10928729 -0.6564252 0.6574939 -0.3698752
-0.005343697 -0.0006628596 0.19715188 -0.13646084 0.98189473 -0.13138177
0.012596152 0.011235608 0.24777545 0.9683491 0.20420204 -0.14353245
-0.0057831137 -0.06423284 0.21846129 -0.14127226 -0.9369442 0.31965262
0.09477556 -0.042208884 -0.010935821 -0.1567214 0.9836607 0.08860091
0.23814224 -0.07628075 0.015160443 0.46205178 -0.8837401 0.07424019
-0.013025498 0.00793987 0.26078096 -0.9968606 0.06699635 0.042194996
0.092523605 -0.010258841 0.34811494 0.028360307 0.9995274 0.011865728
-0.0071570217 -0.02390305 -0.34452912 -0.41501847 0.77334976 -0.47925976
-0.098494135 -0.052551467 -0.09072785 -0.6106914 -0.41767922 -0.6727556
-0.011315549 0.08416674 0.31908953 -0.9960886 0.076983474 -0.04337065
-0.039254367 -0.08000376 0.013068339 -0.40867186 -0.88679403 0.21583265
0.117690735 -0.07784611 -0.0583205 -0.86356086 -0.49729595 0.08342291
-0.034722243 -0.023293877 -0.22707826 -0.9732952 0.22905913 -0.015111204
-0.072943136 -0.024292069 0.3524516 -0.07335542 -0.99460447 0.07335542
-0.06637442 -0.0688359 0.018868051 -0.30609176 -0.9470774 0.0967069
-0.109753035 -0.020142594 0.35587963 -0.41169187 -0.90811795 -0.07636472
-0.24299055 -0.042257257 0.0025779605 -0.63430065 0.77299446 0.011924705
0.004380424 -0.071174815 0.18163568 0.021142077 -0.9702851 0.24103892
0.057948567 -0.055983834 0.032436315 -0.109650716 0.9301151 0.35051754
-0.30912352 -0.036762282 0.10096013 -0.23659143 -0.9674398 -0.089914925
0.08606126 -0.04527028 0.0072684744 -0.25671396 0.9364058 0.23925349
-0.008596651 -0.029247623 0.34771642 -0.80883527 -0.030200498 0.58725923
-0.01908811 -0.004948926 -0.22544245 -0.5602088 0.82823586 -0.013839387
0.1290512 -0.03866298 0.012171886 -0.0683018 0.9962667 0.052795935
-0.023508968 -0.08303243 -0.124442875 -0.32755175 -0.94372463 -0.045756303
-0.026317101 -0.016885735 0.19916421 -0.75324804 0.6553051 0.0565028
-0.03518107 -0.02435335 -0.1738544 -0.9756508 0.21890956 0.013569728
0.03080318 -0.08212648 0.0004474509 0.21563892 -0.9762106 -0.022641603
-0.032382064 -0.015794257 0.04848564 -0.83373004 0.5521485 -0.0051204883
0.24019632 -0.0513724 0.06678015 0.7351993 -0.60207146 0.3114353
0.0054970873 0.10932225 0.33909142 0.63802356 0.7691673 -0.03616035
0.02399579 -0.009479457 0.14510432 0.59372675 0.80347556 0.043766696
-0.29312068 -0.038315035 0.13840532 -0.046311412 -0.9969009 0.06359168
0.29729393 -0.032344677 0.15103646 -0.42463493 0.554035 0.71605194
-0.13187644 -0.04202178 -0.074437715 -0.32742885 0.8667247 -0.3762694
0.0032989131 -0.062083345 0.23223102 0.052224603 -0.99191177 0.11568722
0.037837237 -0.031231154 -0.12889999 0.8454303 0.53405684 0.005557659
-0.039499566 -0.10073688 -0.0020112207 0.8075405 -0.5783457 -0.115735225
0.20705453 -0.039763756 0.101099126 -0.28281558 0.87783474 0.3865508
0.01153183 -0.002421977 -0.17778157 0.49408787 0.86940795 -0.0026465897
0.1462667 -0.07071395 -0.041288845 0.9476592 0.29096985 0.13144834
-0.28510067 -0.03931516 0.10729848 -0.036215622 -0.9993377 -0.0035453187
-0.05474027 -0.09676495 0.024937393 0.4772134 -0.50607735 0.71843797
-0.0132265845 -0.0026261972 -0.2588397 -0.45923132 0.887499 -0.038107637
0.013109686 -0.012147961 0.2898158 0.8974873 0.4352516 0.07122251
0.24487224 -0.027524183 0.053918708 -0.031383697 0.9986706 -0.040892523
0.034613997 -0.07550118 0.037403595 0.5904879 -0.7977316 0.12226368
0.020351673 -0.046679355 0.25396463 0.7701668 -0.54580325 0.33006346
0.104053766 -0.062442858 0.031636957 0.102954715 -0.9943615 -0.025406774
-0.009693792 -0.0023550102 0.050426416 -0.33215237 0.94245064 0.03823097
0.023115002 -0.03752434 -0.3303414 0.9470556 0.051965512 -0.31683645
-0.11702096 -0.08032065 -0.10668928 0.6404985 -0.75575083 -0.13639034
-0.02346572 -0.0074361977 0.11130191 -0.44921902 0.89336705 0.0098761665
-0.043863256 -0.02786394 0.30162433 -0.15463959 -0.9879086 -0.0111022135
0.02394298 -0.022861762 -0.30364558 0.730026 0.5462606 -0.41068405
0.009302773 -0.04913901 0.28974527 0.40497243 -0.86086845 0.308063
0.030907586 -0.059557654 -0.27069172 0.9676759 -0.2328234 -0.09693592
0.05778055 -0.043161876 -0.039726704 -0.00845056 0.9969683 0.077348106
-0.031820927 -0.017568761 -0.10613786 -0.9324792 0.36118343 -0.0053854887
-0.019082166 -0.07200492 0.15522552 -0.51368296 -0.8451791 0.14765564
0.11291746 -0.03853834 -0.045442134 -0.04726132 0.9988126 -0.01181914
0.03591358 -0.035056036 0.13073285 0.9876245 0.15657683 0.009026903
-0.0025444406 -0.001248804 0.054932494 0.004011533 0.9996192 0.027302831
-0.028047213 -0.07136606 -0.21315324 -0.7018785 -0.7117763 -0.027222706
0.039887123 -0.035363633 -0.1927897 0.93605244 0.3518481 -0.0029423037
0.011594827 0.04253098 0.28339183 0.99972075 0.023629263 -0.00025932697
-0.00039214222 -0.0029687749 -0.020086955 0.00065529 0.9987229 -0.050518285
-0.24063742 -0.071242414 0.041479424 -0.80029047 -0.5541526 0.2290199
0.03128395 -0.054115184 -0.27988878 0.9843384 -0.1638361 -0.065080844
0.024120549 -0.08161889 -0.065950215 0.1790357 -0.98384064 0.0019440821
-0.15568021 -0.054396268 0.019019911 -0.08478342 -0.9963895 -0.0044394797
0.016138347 -0.004746781 -0.20516488 0.4314082 0.90214485 0.0046527856
0.011624772 -0.080693 -0.19882318 0.35108835 -0.936241 0.013778674
-0.01737657 -0.059577916 0.22225527 -0.51229095 -0.83642894 0.19479364
-0.24151735 -0.042171717 -0.009110888 -0.40713477 0.9010379 -0.14957261
-0.057218272 -0.04260616 -0.09538942 -0.02354825 0.9975812 -0.06540081
-0.13382919 -0.035355207 -0.0379024 0.022433355 0.9991114 -0.03568146
-0.036387555 -0.060945448 0.06561468 -0.978815 -0.06533548 0.19404243
0.034083217 -0.035408203 0.16943279 0.97767913 0.15030086 0.14681001
0.07744207 -0.066231936 0.03680273 0.008819823 -0.99916327 0.039936952
-0.007110251 -0.0034576762 0.16235958 -0.07595714 0.9970811 -0.0077288393
-0.073274255 -0.06646741 -0.0068768286 -0.21795167 -0.9752949 -0.036014
0.03103164 -0.020674678 -0.26122302 0.9407915 0.3372069 -0.034682497
0.05518006 -0.04677334 -0.012786411 0.020579807 0.9960992 0.085807465
0.005687507 0.0068306033 0.21669911 0.2889751 0.7746031 -0.56256855
-0.028702894 -0.037703797 0.20952399 -0.97052395 -0.13152632 0.20195061
-0.13878874 -0.061478388 -0.121662885 -0.4694943 -0.048052542 -0.8816269
0.0069591226 0.106739305 0.32958558 0.8692477 0.46417528 -0.17014632
0.27553636 -0.024864957 0.101396024 -0.16045345 0.9778656 0.1342894
-0.0029451638 2.8672994e-06 -0.2359929 -0.011061587 0.9999065 -0.00804063
0.15547618 -0.03900872 0.050917048 -0.075782664 0.9954886 0.05709143
-0.26421183 -0.03838951 0.056251716 -0.111558266 -0.98049784 -0.161798
-0.1881637 -0.041192044 -0.019463725 -0.54563516 -0.43709022 -0.7150066
-0.04853656 -0.06632882 0.042165127 -0.3614802 -0.74816316 0.5564026
-0.00068170787 -0.0011251582 0.049101904 0.008786702 0.99973136 0.021448094
0.0033026747 -0.00032244454 -0.15262945 0.02675402 0.9996302 0.0048505007
-0.011951391 -0.002887533 0.045074843 -0.25557843 0.9667872 0.0014899522
0.04582368 -0.014947291 0.32185358 -0.18425101 0.982792 0.013091696
0.26703745 -0.041474894 0.095964044 0.13653985 -0.99051094 0.015650544
0.02843427 -0.013699671 -0.059000134 0.697616 0.71591425 -0.02826188
0.032962523 -0.020475222 0.09397193 0.90386367 0.42771736 0.009394824
-0.032966264 -0.06292653 -0.23306671 -0.74891746 -0.6620022 -0.02959191
-0.2960766 -0.03852619 0.13180456 -0.044501346 -0.9982681 0.038476948
0.12211623 -0.07770284 -0.031770602 -0.8108282 -0.57442105 0.11224111
0.027539494 -0.013603336 -0.09651589 0.69450635 0.71948403 0.0019499079
0.0056047626 -0.0030887476 -0.2830443 0.270033 0.95744216 -0.10191523
0.21822102 -0.036269903 0.10299823 -0.24899767 0.9233992 0.29211998
0.28797185 -0.039077226 0.11672411 0.0153669575 -0.99959195 0.024076171
0.025892414 -0.009922845 0.08997993 0.78269416 0.6223599 -0.007619612
-0.040872186 -0.08013655 -0.02785941 -0.28981817 -0.66679895 -0.6865745
-0.0072542215 -2.461204e-05 -0.21270296 -0.07731204 0.99699366 0.0051419656
-0.2426004 -0.036016226 0.023716625 -0.6448359 0.5345642 -0.54628545
-0.26845562 -0.038487185 0.13403265 0.06828248 -0.98545706 0.15560165
0.029865691 -0.013753489 -0.0063248808 0.82374066 0.5669628 -0.0021367786
-0.07132334 -0.06470675 0.04343203 0.15340425 -0.93071157 0.33202884
-0.09927033 -0.04464864 0.022632321 0.3351935 0.89280903 0.3008943
-0.09643653 -0.039202314 -0.024909658 0.076062284 0.99547035 0.05703722
-0.046366047 -0.10235478 -0.025041465 0.7931982 -0.4962902 -0.3528919
-0.24738242 -0.02654794 0.060609687 0.107239306 0.9940644 0.018323207
-0.011685839 0.04034551 0.30124283 -0.99991566 0.0020368765 0.012823931
0.03901038 -0.06238688 -0.15411034 0.83694667 -0.5039866 -0.21334887
0.13336505 -0.05220408 0.06652887 -0.28650895 0.36492178 0.8858582
-0.071870275 -0.02332238 0.309159 -0.20024514 -0.9668299 -0.15856153
-0.023978429 -0.009062369 -0.2319171 -0.66745037 0.7446003 -0.00896438
-0.0009501646 -0.045195278 0.31439194 -0.226263 -0.92929983 0.29190218
0.005747739 -0.08216821 0.07814113 0.016027443 -0.9994049 0.030545166
0.13053027 -0.05899633 0.022838604 0.1247488 -0.9891159 0.07802177
0.01810762 -0.005502054 0.15828887 0.66518575 0.743204 0.071942694
0.29390654 -0.023919135 0.08877458 0.014108905 0.99799377 -0.061719798
-0.13476767 -0.06783645 -0.12270843 -0.27651274 -0.008512032 -0.96097255
-0.027557688 -0.014922967 0.16970599 -0.90569395 0.42135167 0.04670399
0.0053866277 0.028147586 0.239634 0.5543479 0.5351424 -0.6374332
0.035405144 -0.020216113 0.3514788 -0.20225911 0.8851292 0.4190912
0.02689192 -0.019032435 0.2621883 0.6393877 0.7685435 -0.022897052
0.0074034603 -0.0033469803 -0.025218576 0.113229096 0.99351746 -0.010111636
-0.040831055 -0.094100855 -0.01665637 0.9701753 -0.0040274337 -0.24237089
0.036198664 -0.026431253 -0.1976751 0.7986889 0.6017426 -0.0013864614
0.027510535 -0.03176996 -0.30168498 0.98878163 0.079194866 -0.1266454
-0.2121025 -0.04760929 0.096006215 0.11253857 -0.9358959 0.33381706
0.024958184 -0.00895731 0.09696857 0.46172872 0.88625515 -0.03685743
0.018215306 -0.006019628 -0.18786985 0.5464175 0.837509 -0.0025763398
0.025354208 -0.012197841 0.18088241 0.74333423 0.66804904 0.034128238
0.14482121 -0.039469447 0.044450235 -0.11946891 0.9854644 0.12077713
-0.052404568 -0.078568034 -0.027265862 -0.27887294 0.11878473 -0.9529534
-0.11751578 -0.0387571 0.004648354 0.059714843 0.99642825 0.05970724
-0.08371394 -0.021866767 0.3683816 0.010308911 -0.90685207 0.4213231
0.045571942 -0.043853227 -0.02603776 0.23617446 0.9606163 0.14641717
0.022673918 -0.08203192 -0.029687854 0.13252905 -0.99109083 -0.01323249
-0.22917585 -0.077799864 0.025790524 -0.011644303 -0.98849875 0.15078014
0.059466656 -0.065188155 -0.103628345 0.4070193 -0.9133353 -0.0124033885
0.048906635 -0.040651474 -0.07182543 0.19564375 0.9803056 -0.026917417
0.028681273 -0.014450606 0.1301596 0.7298366 0.68342644 0.016335871
-0.0099280495 0.064807296 0.2851712 -0.8909973 0.36819386 -0.2656259
0.30653223 -0.0384871 0.12834056 0.011911353 -0.9995166 0.02871841
-0.24320962 -0.068073586 -0.037212394 -0.6485909 -0.59677356 -0.4724311
-0.17073183 -0.050815802 -0.009819478 -0.046540428 -0.99855083 -0.027022246
0.060541373 -0.0730284 0.009906253 0.5908641 -0.49589527 0.6363706
0.03159284 -0.01694131 -0.02861212 0.8651461 0.5015091 0.0033002705
-0.1128302 -0.06978052 -0.10204664 0.98000365 -0.14181311 -0.13957755
0.23444599 -0.047522984 -0.04170715 0.24551305 0.90484446 -0.34782168
0.019606175 -0.080717474 0.061729833 0.272634 -0.95631665 0.10549456
-0.15521735 -0.054573532 0.031698737 -0.029222699 -0.9995505 -0.0066955974
-0.021874078 -0.077080086 -0.20536777 -0.63004833 -0.77621603 -0.022971665
-0.16567796 -0.0392188 0.06671299 0.15573429 0.98235744 0.103540555
0.11473561 -0.06757496 -0.056120694 -0.97613215 -0.17727546 0.12545717
-0.14473516 -0.08298562 -0.0640817 -0.69255835 -0.70799917 0.1382031
0.029632183 -0.07960556 -0.07131883 0.4083984 -0.91182494 0.042261783
-0.032551408 -0.033393428 0.17832085 -0.97435004 0.19665112 0.10940921
0.02426321 -0.010502549 -0.10704933 0.6690055 0.74324346 -0.0045630713
0.04500938 -0.051594608 -0.14804892 0.9688297 0.00982223 -0.24753304
0.029630957 -0.016375907 -0.13930932 0.75569135 0.6548423 -0.010591627
0.020972889 -0.037523046 -0.3360157 0.85045993 0.3346515 -0.4058649
-0.18357545 -0.05036527 0.0044713044 -0.06828751 -0.99384636 -0.08721329
0.01359855 -0.07985749 -0.18673736 0.49216297 -0.8704895 -0.0048680785
0.24094287 -0.064668104 0.049504958 0.8354811 -0.450506 0.31466737
0.038701423 -0.07543125 0.026157647 0.4511654 -0.8550162 0.25572863
0.023492057 -0.0563452 -0.32655498 0.99428207 -0.07940784 -0.07139727
0.2449705 -0.04418246 0.0034903227 0.67941636 0.7333387 -0.024652895
0.2022472 -0.04532545 0.099907875 -0.2223057 -0.8115319 0.5403667
-0.027363 -0.030836128 0.2194766 -0.9998194 0.007376292 0.017513925
-0.0017666453 -0.0011240663 0.08478355 -0.0016629673 0.9998553 -0.016934805
-0.028266229 -0.08161607 -0.05808181 -0.17298108 -0.98492515 -0.00012023012
0.026043069 -0.031029753 0.28427944 0.13593762 -0.9906381 0.01253867
0.034672607 -0.024793712 -0.17102174 0.87832755 0.47777173 0.01657854
0.07275617 -0.06636688 -0.018084956 0.15970594 -0.98703206 -0.016175423
0.025929738 -0.07066365 -0.24084541 0.8142115 -0.58048135 -0.010050921
0.3103826 -0.03821287 0.11961246 0.089694254 -0.99579924 -0.018408367
-0.13750635 -0.04530127 -0.08102066 -0.41250917 0.84449345 -0.34156558
0.0011419514 -0.07629706 0.14720619 -0.01894711 -0.97580963 0.2177993
-0.11885396 -0.07245628 -0.03816446 0.8282868 -0.5452396 0.1290533
-0.33126315 -0.016972583 0.15288535 -0.0059926687 0.9905058 0.13734017
-0.15909958 -0.03373981 -0.0022099018 0.110093534 0.9933352 0.034126192
0.14687058 -0.06027054 -0.05733766 0.96284485 0.25238955 0.096069984
-0.1511992 -0.053554438 -0.060340993 -0.90382934 -0.38776255 -0.1809217
-0.028050195 -0.0606247 0.16955021 -0.8334143 -0.495749 0.24424066
-0.07715589 -0.04937542 0.022572774 0.2508119 0.9244255 0.28728196
-0.020063309 -0.009176168 0.19609903 -0.5750157 0.81304365 0.09119741
0.0047154943 0.09347272 0.35735166 0.83612233 -0.24721591 0.48967722
-0.08838183 -0.062436316 0.0010420191 -0.1274429 -0.9917589 -0.013135479
-0.008663898 0.09681845 0.316759 -0.9150322 0.30934834 -0.2588817
0.100823104 -0.05955905 -0.004248123 0.22653493 -0.9667694 -0.1184859
-0.096212335 -0.02333257 0.35222575 -0.09273701 -0.9955955 -0.013763573
0.003173368 -0.0027385047 -0.016538253 0.012194014 0.99334604 -0.11452066
-0.0920081 -0.042538833 -0.0049727107 0.1820922 0.9805345 0.073447324
-0.014244903 -0.003000712 0.2517 -0.928223 0.36178687 0.0866739
0.14408374 -0.0711518 -0.028616263 0.980482 0.0522437 0.18954049
-0.03259301 -0.027886825 -0.27565664 -0.92579544 0.3707151 -0.07398057
0.01996374 -0.043354746 -0.34279576 0.9768002 0.1295077 -0.17055549
0.1976674 -0.049754787 0.011866331 0.08226682 -0.9859982 -0.14505018
-0.22038886 -0.0744144 0.018990822 0.7164828 -0.69303364 0.07972912
-0.31592193 -0.036765046 0.1263512 -0.24474992 -0.9680057 -0.0553392
0.21304868 -0.03138821 0.015509311 -0.0009967702 0.9973181 -0.07318272
0.011207913 -0.0025579217 -0.15370364 0.43838966 0.89834267 0.028195286
0.06550552 -0.06312136 -0.09685481 0.17722538 -0.98096645 -0.079347275
0.035446513 -0.029981064 0.06944697 0.9993377 0.036154628 0.004132393
-0.039002307 -0.036286395 0.007389334 -0.99893564 0.044538725 0.0119958855
-0.32132962 -0.035263095 0.15138932 -0.019982114 -0.9932104 0.11460353
0.14563508 -0.07892383 -0.048133478 0.81306535 -0.5695813 0.12042417
-0.025899556 -0.08381404 0.018613491 -0.20738645 -0.97798485 -0.023163691
-0.018939892 -0.0053719846 -0.26232263 -0.6000417 0.7982148 -0.052944046
0.26220778 -0.026846211 0.05993351 -0.015778948 0.99815553 -0.05862275
0.036972098 -0.027592484 0.34290415 0.039218545 -0.99717814 0.06401258
0.03481198 -0.024916934 -0.2293232 0.9104583 0.4134961 -0.009307969
0.1618443 -0.05456509 0.030695936 0.033677798 -0.9993698 -0.011215767
0.03159515 -0.06052513 0.12017047 0.9167653 -0.3991129 0.015821252
0.07785116 -0.025103174 0.33784452 0.184821 -0.9805855 -0.06552328
0.028981745 -0.06577583 0.13327157 0.79655397 -0.60209644 0.054604497
0.10988688 -0.0591332 -0.010068587 -0.07071394 -0.9971616 -0.025851099
0.29086614 -0.023831876 0.0900655 -0.008718045 0.9988563 -0.047011904
-0.12355574 -0.036066744 -0.010626619 0.09655556 0.9940096 0.051205087
0.13089065 -0.08702224 -0.11627354 -0.020418944 -0.85179883 -0.52347106
0.022852799 -0.008804388 0.15097308 0.63951564 0.7679634 0.035383355
0.05523862 -0.053887576 0.025303185 -0.014397195 0.94732386 0.31995338
0.033571303 -0.057570897 0.110184684 0.84506553 -0.5323493 0.04968319
-0.03461166 -0.015904117 0.31896415 0.059264984 0.9981984 -0.009359633
-0.021070614 -0.008270346 0.17841823 -0.3242519 0.94438916 0.054679636
0.035538703 -0.027138209 -0.1022376 0.9552754 0.29346558 0.036426287
-0.020787055 -0.0074988874 0.16182046 -0.47323504 0.87905926 0.0574755
-0.11274366 -0.072868176 -0.087856315 0.966111 -0.25332847 0.04953943
-0.072251596 -0.023639131 0.3127788 -0.23474415 -0.9693272 -0.07280012
0.23061879 -0.038815524 -0.013336835 0.13751198 0.98896956 -0.055042516
-0.31266508 -0.036676385 0.10945819 -0.1940958 -0.98002714 -0.04328443
-0.313617 -0.03581662 0.09815009 -0.12858132 -0.99044484 -0.04985775
-0.03320722 -0.022121375 0.13555491 -0.8866938 0.4586204 0.05866417
-0.13246085 -0.05755796 -0.12197944 -0.1412039 0.47543725 -0.8683438
0.16455017 -0.04627825 0.0798539 -0.48481283 0.5031841 0.71537566
-0.0268239 -0.08189184 -0.0514944 -0.17994685 -0.98361045 -0.0113841025
0.008564969 0.104185276 0.3329961 0.8812567 0.47058806 -0.043971397
0.018916719 -0.02614214 -0.32721937 0.73440355 0.5249525 -0.43020484
0.12724335 -0.036662668 -0.0077110957 -0.19463794 0.96818155 0.15729108
0.16125351 -0.042098302 0.06973152 -0.256403 0.9202928 0.29549745
-0.08043845 -0.045834407 0.0045901253 0.34112138 0.9143568 0.21814616
-0.011590558 0.061846294 0.31992483 -0.9998938 0.0022428038 0.014402767
0.021998812 -0.07062314 0.14489134 0.45447862 -0.8838849 0.11043841
-0.0322312 -0.016086686 0.31896645 0.09949265 0.9950176 -0.0064147175
0.20523573 -0.05057756 0.020304995 -0.41334987 -0.9089453 -0.054409675
-0.044192232 -0.06254953 0.04523982 -0.7407521 0.50543004 0.44252324
-0.24178183 -0.045093555 0.08702291 -0.3213356 -0.9465805 0.026996976
0.14804205 -0.079527184 -0.11406559 0.8528612 -0.2925334 -0.43249497
-0.2192037 -0.035860594 0.001137411 -0.19125985 0.9098396 -0.36825484
0.025082683 -0.062587835 0.18537638 0.6944524 -0.71312374 0.09586656
0.019496107 -0.00608008 0.022028059 0.6350695 0.7724427 -0.0043606763
0.023937672 -0.08300014 -0.00885267 0.2246746 -0.9721559 -0.066589475
-0.10406916 -0.0387801 -0.062674716 0.012995595 0.99962366 -0.024160825
0.033890318 -0.023740558 -0.16366942 0.83712393 0.5464918 0.023878165
-0.036627583 -0.034639508 0.10710958 -0.98258686 0.18404013 0.02554072
0.13109754 -0.086342104 -0.06503211 -0.07985079 -0.9913055 0.104582
-0.26587275 -0.0371519 0.13663371 0.19915012 -0.90379345 0.37880948
-0.14769478 -0.07772452 -0.11207313 -0.9491785 0.030842219 -0.31322342
-0.06380209 -0.04083977 -0.07650097 -0.021005075 0.98892856 -0.14689802
-0.0068968544 -0.0033286302 -0.03275552 -0.07893837 0.9968793 -0.0006845027
-0.08080769 -0.06378975 -0.018387191 -0.30617836 -0.9519061 0.011387548
-0.03845785 -0.030434415 0.038196545 -0.99656343 0.081688516 0.013723732
0.027750516 -0.014137857 0.15682943 0.7979582 0.60233516 0.021332135
0.009529817 -0.056464862 -0.36193687 0.66245115 -0.43526927 -0.6096714
0.17742151 -0.04743952 0.08668579 -0.3495901 -0.019509811 0.93669957
-0.14057411 -0.060917724 -0.0013005969 -0.81135285 -0.48781946 0.3220849
-0.14414644 -0.05263606 -0.10582688 -0.5935523 0.79490465 -0.12578662
0.032324247 -0.032240145 -0.27780437 0.8675649 0.39123505 -0.3070282
0.015159583 -0.08295075 0.046048798 0.18938838 -0.97981113 0.06404893
0.017367836 -0.082029425 -0.14587463 0.12971626 -0.9906293 -0.042747494
0.0067210593 0.02085892 0.2359836 0.8186182 0.33843446 -0.46403268
-0.048772264 -0.04455433 -0.018518753 -0.23911572 0.958657 0.15427363
0.10632131 -0.038850997 -0.03486897 -0.056389444 0.9983894 -0.0062231766
-0.012951416 -0.0012854529 -0.18192226 -0.29700032 0.954877 -0.0007867944
0.010992622 0.09019367 0.32975516 0.9988308 -0.036121048 0.03212792
0.1558961 -0.052200343 -0.031465884 0.45365074 -0.87529826 -0.1674932
-0.095067635 -0.022213858 0.33171612 -0.116673484 -0.97436297 -0.19236444
-0.016204115 -0.07957284 -0.23704772 -0.5455491 -0.8380597 0.0056649847
0.05364288 -0.04280839 -0.099766985 0.041759282 0.99789834 -0.04954775
-0.096166 -0.038870744 -0.052616335 0.03680952 0.999316 -0.00356049
-0.16038956 -0.03498719 0.028971445 0.04373225 0.9977499 0.050819233
0.02685952 -0.037548527 -0.31537026 0.98501134 0.026017068 -0.17051625
0.10638853 -0.01856861 0.34196442 0.43259367 -0.8888684 -0.15091611
0.14680745 -0.03520704 -0.014755498 -0.013403613 0.99990803 0.0020750044
-0.15837112 -0.038963452 0.058486108 0.13798533 0.98347 0.11724626
0.27354592 -0.040540013 0.099450506 0.1357485 -0.9906368 0.014526398
0.23339175 -0.043220654 0.112841606 -0.057893615 -0.9518605 0.30101484
-0.17293002 -0.049365845 -0.023563066 -0.43126804 -0.83688855 -0.33708364
0.11027551 -0.06128351 -0.06455041 -0.64102113 -0.74352413 0.19043049
-0.12498271 -0.03837936 0.010147709 0.14059481 0.9888942 0.048180223
0.008606308 -0.034136303 0.3457283 0.63552094 -0.71753883 0.28504586
0.03973579 -0.07205596 -0.086619385 0.61180097 -0.7908932 0.013694947
-0.03446407 -0.057180647 -0.2573361 -0.84941894 -0.52472997 -0.056089178
0.127617 -0.08549832 -0.06356341 -0.19746894 -0.97677743 0.083136976
0.0026518577 -3.756599e-05 -0.23413354 0.06762204 0.99767625 -0.008327163
-0.097510785 -0.038932182 -0.030576767 0.08743406 0.99575615 0.028724318
0.005544379 -0.0844045 -0.1523214 0.23908 -0.96616805 -0.09674801
0.010690738 -0.0854465 -0.13043264 0.21243466 -0.9715026 -0.10513889
0.10792524 -0.040139113 0.004857786 -0.17903708 0.98060036 0.07980396
0.23988187 -0.031165674 0.09804111 -0.093425445 0.9924191 0.07984964
0.09729508 -0.04114115 -0.0152507145 -0.2957323 0.9492862 0.10676164
0.006958186 -0.08492649 -0.26014018 0.6052867 -0.79383725 0.058740593
0.10879853 -0.038897794 -0.05523103 -0.033642173 0.9992175 -0.020796703
0.31523272 -0.035766643 0.103285715 0.17324741 -0.98060566 -0.09164
-0.02488068 -0.07360712 -0.24588418 -0.61075073 -0.7909428 -0.037322856
0.087138474 -0.054337926 -0.10179093 0.5422641 -0.6493897 -0.5331442
-0.013356567 -0.05210106 0.26676285 -0.6202035 -0.750059 0.22969346
0.016621698 -0.07978863 -0.16865048 0.48535028 -0.8639907 -0.1339966
-0.13783047 -0.04194126 0.051818054 0.15360181 0.9570687 0.24581693
0.008697102 -0.0017140455 -0.13011466 0.40563437 0.9140209 0.0051496555
0.03202279 -0.028735893 0.17344147 0.98699313 0.1551213 0.042214077
0.04226505 -0.04400926 -0.17372236 0.9990105 -0.007835257 -0.04377988
0.011455717 0.05315195 0.2872144 0.9987578 0.039013974 -0.030997822
-0.057439424 -0.080312125 0.01341237 0.074114606 0.9043965 0.42020717
-0.013728347 -0.012106236 -0.31178156 -0.67959875 0.71199185 -0.17667255
-0.14924933 -0.0662116 -0.10555152 -0.9693244 -0.19889817 -0.14439437
-0.05068645 -0.04314481 -0.1133172 -0.18463382 0.97456205 -0.12703985
0.12302897 -0.048513856 -0.09760747 -0.2682738 0.94263583 -0.1986628
0.12125649 -0.08421368 -0.08305425 -0.56023884 -0.82609636 0.06080595
0.100980185 -0.010903502 0.3414331 0.2424758 0.96671695 -0.081631646
0.012801187 0.007368643 0.26967698 0.99447393 0.07382379 0.07464321
-0.03928357 -0.053730413 -0.17818634 -0.98716825 -0.15456136 -0.040120278
-0.033635955 -0.072749 0.06642219 -0.7521564 -0.6371116 0.16837326
-0.024402441 -0.029676989 -0.3178825 -0.76080424 0.5310902 -0.3729881
-0.16100368 -0.033605427 -0.00021255296 0.10577124 0.993525 0.04147773
0.07433512 -0.06457797 -0.056199387 0.33752015 -0.9362147 -0.09788888
0.30248988 -0.023285063 0.10062194 -0.025441684 0.9978134 -0.06100066
-0.09701087 -0.047480453 0.033751667 0.17785326 0.9380919 0.2972404
-0.028565383 -0.029699031 0.32782775 -0.18572362 -0.981065 0.0549394
-0.21523838 -0.0362956 -0.0020666672 -0.20616682 0.8797883 -0.42833158
0.33142796 -0.030276889 0.117547825 0.9487641 -0.29499766 -0.11323903
-0.19384222 -0.049826335 0.08666618 -0.006333294 -0.9754612 0.22008009
-0.16155891 -0.034612082 -0.024249872 -0.010367831 0.9904755 -0.1372982
-0.03187811 -0.028970998 0.3278875 -0.2126638 -0.975641 0.0538392
0.035142757 -0.030526044 -0.25745532 0.9939941 0.105790846 -0.027998554
-0.21775094 -0.072314546 0.013175954 0.70810455 -0.70413256 0.05277613
-0.037106734 -0.04451935 0.11342046 -0.97557694 -0.21947053 -0.009073721
-0.07180247 -0.012936522 0.35808265 0.27349034 0.93469733 0.22703294
0.3220693 -0.028251793 0.096049756 0.4397871 0.8197001 -0.36698642
0.06781329 -0.011651543 0.33910272 -0.051551566 0.9986649 0.0032914982
-0.07789025 -0.057696924 0.046701662 0.30852088 0.8113165 0.49656865
-0.0031449955 -0.05797609 0.25441107 -0.07681924 -0.988208 0.13245268
-0.2156801 -0.030692644 0.02148197 0.021922313 0.99736255 -0.06919111
0.03970529 -0.022678874 0.2741659 0.598481 -0.44999966 -0.66281277
-0.02227859 -0.043103885 0.24796674 -0.8624093 -0.44229457 0.24622294
0.08833157 -0.06259211 -0.006248734 0.08181425 -0.9965205 -0.015912762
0.055295423 -0.015696462 0.29134533 0.13845304 0.94330573 -0.30167043
0.14717478 -0.041560803 -0.05367993 0.62156737 0.47075507 -0.62613386
0.0689163 -0.091654584 0.014277741 0.9301548 0.17992644 0.32006025
-0.011667745 -0.08049777 0.08792922 -0.25259504 -0.95909345 0.12781033
0.059522063 -0.07148597 -0.025218906 0.51564497 -0.8429801 -0.15328021
8.7439315e-05 -7.455689e-05 -0.24552922 0.004180359 0.9998687 -0.015653463
-0.05390201 -0.040611487 -0.07604792 -0.05670124 0.9969074 -0.05441189
-0.023419118 -0.049303375 0.22577697 -0.9802219 -0.1910009 0.05180357
0.033480126 -0.023232302 -0.24211961 0.8549322 0.51669824 -0.04597665
-0.04732686 -0.074265376 -0.03638871 -0.15302052 -0.9750464 -0.16083892
-0.031527083 -0.01736235 0.11466593 -0.8751491 0.4837784 0.00851967
0.03725032 -0.028632242 -0.17298912 0.73204905 0.6800241 0.040882867
0.0053501613 -0.00065518764 -0.08134325 0.006249306 0.99891347 0.046183895
-0.06293129 -0.022162318 0.36382765 0.17866328 -0.82232404 0.5402432
0.1213738 -0.042458065 0.033883467 -0.15334815 0.9779899 0.14149188
-0.024267906 -0.017553166 0.30746505 0.11730738 0.99246895 -0.035275806
0.29801172 -0.02350319 0.11513031 -0.113930255 0.9917691 0.058429267
0.027472842 -0.016531894 0.3228986 -0.12974411 0.99130404 0.02197066
0.13592486 -0.08943608 -0.095316544 0.06912889 -0.997453 0.017571403
0.31718448 -0.02075355 0.12525482 -0.13909514 0.9869792 -0.08077489
-0.023581678 -0.011728882 0.18731293 -0.76248807 0.6279727 0.15576322
0.05980379 -0.026774377 0.3067277 0.09227569 -0.99406254 -0.057661876
0.20917052 -0.053961344 -0.017495077 -0.99446386 -0.026403306 -0.1017076
0.01633948 -0.07660739 -0.27791688 0.82284683 -0.55951726 -0.09931517
-0.011490155 0.07655392 0.31748393 -0.9968299 0.07786213 -0.016358804
0.10342398 -0.011810533 0.36720768 0.1066643 0.9789723 0.173885
-0.33092466 -0.024501547 0.11963855 -0.8740856 0.4063898 -0.26612353
-0.012154008 -0.0036053073 -0.27546287 -0.23077258 0.9722237 -0.039053023
-0.026797878 -0.06498026 -0.28523186 -0.79572177 -0.6028863 -0.05792222
0.0036862288 -0.083377875 -0.23862128 0.32753175 -0.93252665 0.15204269
0.2308312 -0.06228732 0.06491631 -0.20227642 -0.78968173 0.57921237
-0.3001646 -0.029285561 0.14995995 0.28907618 0.8394546 0.46016407
0.016955264 -0.007013935 -0.27345216 0.62413013 0.7782675 -0.06900213
0.28138974 -0.03959587 0.090543315 0.09339716 -0.99558824 -0.009000947
-0.0038378462 -0.106638685 -0.28026536 -0.330349 -0.89362085 0.30382782
-0.12982197 -0.04445897 0.056018956 0.3700498 0.8539598 0.36580843
-0.2368601 -0.06509166 0.05822837 -0.71008664 -0.5974864 0.37254134
-0.025495676 -0.073541254 -0.22704965 -0.71806836 -0.6958284 -0.014169051
0.17621458 -0.046451777 -0.023374321 0.52726614 -0.6761953 -0.51453894
-0.05578373 -0.015216883 0.34979683 0.09214943 0.98872054 0.11806834
0.023066226 -0.009603015 -0.1188562 0.6492036 0.76061326 0.0014462848
-0.028981075 -0.012928447 0.11002791 -0.81108934 0.5839893 0.033024058
0.23149933 -0.07795937 0.018002205 0.076747075 -0.9941094 0.076527126
0.022882609 -0.06773228 0.16596973 0.57811064 -0.80900395 0.1063051
-0.20406374 -0.05007185 0.08457996 -0.05671474 -0.9866889 0.15240863
0.006391269 -0.0005536479 -0.15624882 0.33781964 0.94117874 0.007769435
0.013821722 -0.013087193 0.28742343 0.75340354 0.649667 0.10156739
-0.2680008 -0.026149461 0.09386923 0.240379 0.9644888 0.10944982
0.20299861 -0.038540117 0.093697965 -0.2487276 0.93754417 0.24319841
-0.021983474 -0.0074146837 -0.24832614 -0.6883211 0.7253214 0.0110858595
-0.24356009 -0.050675105 0.048389923 -0.97444195 -0.1592895 0.15839738
0.09381077 -0.04100296 -0.024015963 -0.24750485 0.95644593 0.15476607
-0.19356923 -0.04453767 0.09470812 0.40661737 0.25305757 0.877852
0.02145129 -0.006995551 0.105014294 0.6545941 0.75583404 -0.014877715
-0.094093546 -0.04998583 0.038947675 0.30832314 0.8987574 0.3117242
0.123507254 -0.045680113 -0.08498507 0.01175936 0.9455968 -0.32512826
-0.0018241435 -0.08595494 -0.030271847 0.012404368 -0.9999172 -0.0034253146
-0.2264434 -0.07280702 -0.037876457 0.24366601 -0.8376466 -0.48885065
0.05179019 -0.041395597 -0.0752946 0.22948575 0.9730021 -0.024560748
-0.041293804 -0.053750597 -0.16062456 -0.9065649 -0.35560545 -0.2273431
-0.10945042 -0.037187118 -0.033774577 0.17783263 0.98299396 -0.045808125
-0.19022949 -0.04174857 -0.017693687 -0.50976545 -0.39325118 -0.7651749
-0.012402831 0.0016545933 0.23063543 -0.8673149 0.4816083 -0.12577099
-0.01161925 0.044262722 0.3047513 -0.99985975 0.00728505 0.015081198
-0.05031655 -0.06979831 -0.07543795 -0.20759843 -0.9780504 -0.017893715
0.24931712 -0.059958715 -0.007096396 0.9915968 -0.1020708 0.079480864
0.055737853 -0.06692472 -0.09703936 0.41063547 -0.9117565 -0.008862135
-0.035378788 -0.022302665 0.043332655 -0.98485076 0.17339632 0.0016229841
0.03386359 -0.057530764 -0.25506103 0.8127157 -0.57289255 -0.1062416
0.01605456 -0.062425278 0.21405353 0.27716845 -0.9447152 0.17518803
-0.24154423 -0.044828225 0.097648084 -0.30722594 -0.9511907 0.02912824
-0.055789586 -0.06779695 -0.073588 -0.45858946 -0.8871827 -0.051015444
0.16534574 -0.054196805 0.00924599 0.080486186 -0.9966448 -0.014873025
0.27252263 -0.040730193 0.094928056 0.14497177 -0.9894163 0.0062049883
-0.17238684 -0.05326592 0.038771663 -0.17821452 -0.97908175 -0.09817559
-0.0022760092 -0.08614405 -0.082782365 -0.045343906 -0.99887675 0.013755589
0.06637306 -0.041420683 -0.06855667 -0.06566918 0.99645644 -0.05255511
-0.041748453 -0.03658992 -0.09838625 -0.65806276 0.75296056 0.0019531753
-0.01935995 -0.0543885 -0.35090908 -0.925902 -0.29805437 -0.23209713
0.10368781 -0.039259903 -0.06755842 -0.006266902 0.99928886 -0.037182096
-0.18278767 -0.05065259 0.012559498 -0.031055454 -0.9993863 -0.016202515
0.2692077 -0.04108783 0.0705846 0.21374932 -0.97647333 -0.028479906
0.28201917 -0.02493879 0.10924687 -0.12709509 0.9821713 0.13851498
0.255006 -0.04260018 0.09737482 0.13965857 -0.98931676 0.041807752
0.3321356 -0.02685761 0.1267846 0.945313 0.279933 -0.16739437
0.09783777 -0.039376758 -0.067832746 -0.03096159 0.998818 -0.03746939
-0.033440016 -0.016570399 -0.058317177 -0.728402 0.684265 -0.034810483
0.04022224 -0.044150513 0.0035136517 0.8628809 0.4806832 0.15614173
-0.011709401 0.044386357 0.289218 -0.99992204 0.008872294 -0.008788377
-0.07036338 -0.042838674 -0.029636957 0.0881314 0.9826932 0.1629325
0.12596607 -0.08343724 -0.051704712 -0.49636713 -0.8514638 0.16920137
-0.16090776 -0.050800886 -0.0368178 -0.46237785 -0.86136514 -0.21037309
0.023935357 -0.01039091 0.17129411 0.71312594 0.70092344 0.01255718
0.068992116 -0.041842707 -0.07912531 -0.09711029 0.99340045 -0.061034042
-0.104926474 -0.05865581 -0.02131785 -0.019448075 -0.99964637 -0.018136285
0.022523277 -0.01726574 0.32879004 -0.13516118 0.98728526 0.08366224
-0.05799116 -0.040591132 -0.07385426 0.01334706 0.9973922 -0.070928134
0.11793718 -0.08273103 -0.096747585 -0.501363 -0.8651331 0.013412098
-0.06880037 -0.10296715 0.008504229 -0.9222131 -0.3307661 0.20029186
0.32220227 -0.034698438 0.103597395 0.13970119 -0.9868984 -0.080715574
0.032440454 -0.07508232 0.050132073 0.66447127 -0.7408198 0.09830535
0.2103895 -0.06887033 -0.012561852 -0.9242092 -0.3815663 -0.015639465
-0.015329359 -0.08548129 -0.10004064 -0.12801461 -0.99097157 0.039843906
-0.0072729164 -0.08841194 -0.30170974 -0.6409593 -0.45116594 -0.6209835
-0.29114023 -0.038913157 0.10049618 -0.07251196 -0.99719733 -0.018426605
-0.22654861 -0.072283894 -0.03881919 0.24812956 -0.83302474 -0.49447095
0.014277309 -0.0040722303 -0.24497254 0.4521804 0.8918142 -0.014152325
-0.0067158206 -0.086079136 -0.263088 -0.44534767 -0.8795692 0.16740213
-0.01899907 -0.0048189564 0.063261524 -0.48467416 0.8745917 -0.013430302
0.13701186 -0.082471766 -0.030886795 0.28461334 -0.93350786 0.2180787
-0.0538322 -0.013364412 0.31687692 0.20339233 0.9790319 0.011316173
0.007935048 0.1030218 0.35148752 0.98263687 -0.012100036 0.18514405
-0.033913556 -0.017786989 0.039021462 -0.9403886 0.34005433 0.0056751054
0.25507 -0.042142622 0.10453675 0.10807593 -0.9913036 0.07507836
0.011092113 -0.0022637923 -0.16272143 0.47795582 0.87836945 0.0050327717
-0.06327385 -0.06630033 -0.076698765 -0.056844097 -0.998214 -0.018369233
0.121579275 -0.06420437 0.0048824986 -0.65056366 -0.70595676 0.27998576
-0.047694445 -0.027506443 0.32852802 -0.03763409 -0.99914426 0.01715907
-0.009472329 -0.07757767 0.13172297 -0.10271095 -0.9917879 0.07620465
-0.21642755 -0.050565835 0.073231265 -0.004246798 -0.9957716 0.091765784
0.0017324098 -0.07705702 0.14309055 -0.013674119 -0.98531836 0.1701785
-0.03706117 -0.026179655 0.013075802 -0.8367622 0.5469069 0.02687134
-0.03004572 -0.015399061 -0.15454964 -0.8827232 0.4698447 -0.0067683165
0.002307974 -0.0014347291 0.005177353 0.0042109326 0.99988294 0.014707751
0.035064004 -0.052328866 0.06837311 0.98538256 -0.1691822 0.019967468
0.11056809 -0.055807322 -0.10351264 -0.57532215 0.80514693 -0.1440237
0.24101748 -0.047579862 0.0794693 0.39359134 -0.8995432 0.18949348
-0.30978945 -0.02253744 0.12664449 0.12693788 0.9908291 0.046309043
0.057497676 -0.025358513 0.35215384 0.023322722 -0.9472097 0.31976527
-0.011342307 -0.08995682 -0.29325855 -0.9218374 -0.296964 -0.24905476
0.03922361 -0.058738332 -0.16143145 0.909961 -0.38562542 -0.15252566
-0.13437292 -0.05551694 0.041875176 -0.05080656 -0.9976505 0.045958053
0.00096464006 -0.08592744 -0.047448877 0.027118782 -0.9995818 -0.010036085
-0.14098173 -0.06704252 -0.008872756 -0.907352 -0.2606477 0.32981086
0.07476612 -0.04233714 -0.08966942 -0.017948573 0.99853796 -0.05098888
-0.03380125 -0.02185773 0.12399648 -0.9196347 0.3883638 0.058698
-0.03633009 -0.027488306 -0.2256005 -0.8660067 0.49039683 -0.097690225
-0.04225769 -0.044887207 -0.16511236 -0.99799025 0.061217055 -0.016370231
0.017164553 -0.011325225 0.26573148 0.7512879 0.6442036 0.14341629
-0.011048048 -0.08148205 -0.21803924 -0.1875234 -0.982259 0.0014838201
-0.035194766 -0.023446891 -0.19074604 -0.9703052 0.24183603 0.004804444
-0.038682736 -0.028459936 0.3115248 -0.1581256 -0.9873678 0.0100565795
0.070888944 -0.012006636 0.35679534 -0.13188443 0.9869458 0.092435814
-0.0047143446 -0.08669628 -0.2627216 -0.23797315 -0.9472673 0.21460079
-0.027107261 -0.07111729 -0.24463502 -0.8248493 -0.55336493 -0.11580564
-0.33448747 -0.017100533 0.15011248 -0.63868386 0.76300865 -0.09950199
-0.0020425806 -0.08600969 -0.027403701 -0.03509799 -0.9989932 -0.0279412
0.027734702 -0.08020602 -0.13115844 0.47551155 -0.8731939 -0.10686966
0.039726593 -0.04191673 -0.0066902433 0.8099448 0.5826458 0.06718083
-0.17222513 -0.05427289 0.06886558 -0.028427534 -0.99707085 0.071004175
0.04268381 -0.027932726 0.30862704 0.06249818 -0.9979 0.01701589
-0.10574006 -0.020800782 0.3449847 -0.4213982 -0.8999317 -0.11201085
-0.0384444 -0.029255005 -0.1069627 -0.74558526 0.6663103 0.011541691
0.15121107 -0.06647553 -0.08579421 0.9868108 0.15917324 0.029467601
0.025432026 -0.06650272 -0.2799099 0.7608262 -0.6387372 -0.114709735
-0.13441925 -0.053922158 0.063582554 0.21457942 -0.9526913 0.21525538
0.2494364 -0.027625896 0.08665036 -0.11001441 0.992348 0.05605579
-0.0035527104 0.1100447 0.33444017 -0.61013216 0.7893094 -0.0687707
-0.053359315 -0.043484837 -0.029455852 -0.024943668 0.99616593 0.08385237
-0.098197296 -0.062907025 0.033992443 -0.20569295 -0.9780731 -0.032609403
0.022952957 -0.06011434 0.20678188 0.78127 -0.5928907 0.19518638
-0.034780834 -0.03486816 0.16374214 -0.99430937 0.09780602 0.042223558
-0.11059624 -0.057151567 -0.093465246 0.9813383 0.0003593768 -0.19228905
0.21156535 -0.06988958 -0.021003457 -0.9013393 -0.41767538 -0.114606634
-0.03406044 -0.061492674 0.088264115 -0.98511094 -0.10810727 0.13367602
0.00080229156 -0.08211175 0.08117657 -0.0075165615 -0.9991995 0.039290424
0.13829902 -0.038473118 0.02098508 -0.14115174 0.98237354 0.122549355
0.06841455 -0.06834073 -0.0021171363 0.3823375 -0.9239452 -0.011968502
-0.010966167 -0.009822571 -0.30950952 -0.6015206 0.7101694 -0.3658311
0.17883755 -0.049725544 -0.012878585 0.33131313 -0.9086237 -0.25423345
-0.038209166 -0.055194277 -0.19876763 -0.9385529 -0.335266 -0.0819458
-0.23437253 -0.074325405 0.038882308 -0.16146788 -0.9675376 0.1944199
-0.28280854 -0.030878074 0.14166996 0.35642684 0.8405732 0.40791732
0.19697826 -0.05041391 0.018468076 0.06597153 -0.99631524 -0.054805245
-0.03637109 -0.0580926 -0.20450635 -0.8943516 -0.44708025 -0.015953017
0.090033144 -0.06271753 0.0021958803 0.11492763 -0.9927372 -0.035559855
0.011483139 0.058509443 0.31718537 0.9998735 -0.0083302455 0.013548091
0.046330508 -0.014217194 0.30641064 -0.24632108 0.9691345 -0.010204494
-0.04032725 -0.073741384 -0.10649743 -0.5773321 -0.81649643 -0.004603507
-0.2816326 -0.039312225 0.12280604 -0.044673387 -0.99887925 0.015637971
-0.017756015 -0.008927478 0.24669217 -0.7490122 0.65721476 0.083961956
-0.014352163 -0.0015883297 0.2314008 -0.8520888 0.505186 -0.1368639
-0.30371064 -0.022167545 0.10738574 0.034850378 0.9993238 0.011726074
0.020468121 -0.05477954 -0.339815 0.95677197 -0.17454782 -0.23263797
0.025955133 -0.07322737 0.092164785 0.67523116 -0.7338138 0.07470152
0.035122406 -0.04188521 -0.2697735 0.99836355 -0.006961855 -0.05676121
0.030687185 -0.049170732 0.19264029 0.9824302 -0.16961971 0.07784668
0.086608104 -0.022118133 0.32200545 0.26539657 -0.9466624 -0.18274271
0.035100173 -0.07580222 -0.08052507 0.67976093 -0.7334191 -0.004636431
0.3198276 -0.019929796 0.13057636 -0.24232766 0.9693402 -0.040704716
-0.078146376 -0.022991642 0.3147028 -0.13012637 -0.989495 -0.06298337
-0.13644055 -0.03562616 0.006539061 0.10765194 0.99164766 0.07103409
0.009486655 -0.03108076 -0.35152778 0.4879833 0.72449076 -0.48681146
0.0874069 -0.039685145 -0.06948992 -0.03961996 0.9990511 -0.018087374
0.24285707 -0.06457534 -0.038577817 0.68696636 -0.64325416 -0.3380848
0.024854729 -0.0090552345 0.09255146 0.4744047 0.8797811 -0.03041968
-0.06403677 -0.07120156 0.0038167606 -0.4350581 -0.899252 0.04550048
-0.1469395 -0.08305025 -0.07928653 -0.82128286 -0.5668926 0.064244255
-0.07853967 -0.023050219 0.31633052 -0.11069193 -0.9904165 -0.08259768
-0.021742497 -0.08290523 -0.082854 -0.21000491 -0.976645 0.045415126
0.033164516 -0.058006357 -0.2578423 0.86258346 -0.49685803 -0.09529885
-0.031912234 -0.04593664 0.1831571 -0.98006254 -0.12404066 0.15521346
-0.23181254 -0.056203384 0.07386078 -0.018349068 0.045964114 0.9987746
0.19181472 -0.035157956 0.06858337 -0.059890714 0.9963188 0.061334964
-0.089486614 -0.010846037 0.34422386 0.12216312 0.99251 0.0001968785
-0.27769506 -0.03355838 0.054441668 -0.5363043 -0.515308 -0.6684574
-0.20850767 -0.050510168 0.028086036 0.08308192 -0.9943128 -0.06662788
-0.043528024 -0.047288038 0.0147401625 -0.64403087 0.7474801 0.16278124
