ply
format ascii 1.0
element vertex 678
property float x
property float y
property float z
property float nx
property float ny
property float nz
end_header
-0.03186937 -0.064771004 -0.23593156 -0.81442356 0.20866993 -0.5414528
0.028320473 -0.036260825 0.09322333 0.9555809 0.29122645 0.04530319
0.09892109 0.040603895 0.22749908 -0.051336106 0.9962579 0.06953253
0.0069350377 -0.114321075 -0.025258604 0.36381313 -0.9093732 0.20169364
0.038686965 -0.08004044 -0.22874941 0.9645003 -0.14798051 -0.21872565
0.16089371 -0.0054800464 -0.081683345 0.04472756 0.9587131 -0.28083557
0.40033162 -0.021109574 -0.0068180542 0.8957355 0.22899012 0.38107938
-0.044558235 -0.07820932 -0.03308073 -0.9816492 0.0124248965 0.19029039
-0.023780392 0.110350706 0.2549041 -0.63377243 -0.65689313 0.4084409
0.15664631 -0.025643803 0.015840363 0.06449906 -0.95391786 0.29305398
-0.01735783 -0.120054245 -0.18132573 -0.2477416 -0.9688214 0.003037915
0.0823061 -0.0003893886 -0.044466775 -0.18335986 0.9830393 0.0035999974
0.02969984 -0.11482203 -0.1578735 0.6687538 -0.7272756 -0.15439737
-0.029663168 -0.06442422 0.07181436 -0.97412765 -0.17084691 0.14794147
0.037910312 0.024143366 0.20040098 0.0745251 -0.82879305 -0.55457014
0.1633226 -0.010934474 0.010481996 0.1375367 0.93896616 0.31531933
0.023769176 -0.1100075 -0.095872186 0.59852386 -0.79100204 0.1268265
0.0050818264 -0.012245228 0.12092274 0.2682148 0.96311027 -0.021896886
0.08601062 0.021827303 0.24358456 0.07661998 -0.90069366 0.42764503
0.040917303 -0.03401618 -0.03890513 0.9985262 0.05427144 0.00016759931
0.052643005 -0.013245472 -0.09650225 -0.38344124 0.8529463 -0.35419694
0.030077552 -0.057044793 0.07514327 0.99161065 -0.11281508 0.063095346
0.017035266 -0.02915945 0.19185157 0.98929167 -0.04341435 0.13934557
-0.06547717 0.02457719 0.2063808 0.02389132 -0.9785885 -0.20443505
-0.012606302 -0.0068476475 0.0641172 -0.1776491 0.9837272 -0.026861263
-0.046573687 -0.045461852 -0.11360212 -0.9960818 0.06410939 0.060917605
-0.04353531 -0.009352222 -0.0810602 -0.13126236 0.9816741 -0.13815278
0.042802077 -0.09029516 -0.12507974 0.93223506 -0.3596166 0.040170774
0.025204191 0.025713474 0.19685367 0.007934318 0.0007781735 -0.99996823
-0.09957749 0.0039362526 -0.04055669 -0.00024394902 0.9992152 -0.03961122
0.03594475 -0.094205156 -0.22298825 0.88057977 -0.3864764 -0.27425405
-0.13563901 -0.029603034 -0.005139362 -0.13234738 -0.9908956 -0.024699016
-0.010604769 0.052191008 0.2169923 -0.69833547 0.7157706 0.0002730448
0.121038795 0.0007397019 -0.03401918 0.06932917 0.99377877 0.08716187
-0.07286317 0.027973067 0.19978666 0.028904816 -0.8039363 -0.59401256
-0.03161057 -0.006872176 -0.067291185 -0.11136223 0.99376833 -0.0047917296
-0.016588911 -0.09046542 -0.27658868 -0.67510545 -0.1461089 -0.72310776
0.00738341 -0.08935002 0.064736284 0.3576659 -0.90404165 0.23405954
-0.010025203 -0.016774861 -0.19400479 -0.52053213 0.84291023 -0.13619332
0.14952224 -0.029741101 -0.016684216 0.1522056 -0.98761845 0.03799112
0.019410076 -0.11439855 -0.24175479 0.8349163 -0.5006491 -0.22861592
0.1378011 -0.025197593 -0.09700352 0.18422845 -0.8913186 -0.41425958
-0.041884024 -0.029883156 -0.0706295 -0.98673916 -0.1468982 -0.06904133
0.0047215917 -0.07687152 -0.28764576 0.0058128946 -0.11489372 -0.99336076
-0.016892286 0.03590566 0.2598878 -0.8465298 0.4205388 0.3263961
-0.014898017 -0.045572255 -0.24517077 -0.59159356 0.75965583 -0.27007428
-0.045015372 -0.05953929 -0.059131224 -0.9822593 0.14792617 -0.11525839
-0.38883582 -0.034334593 -0.019076666 -0.4732789 -0.8621969 0.18061984
-0.29370943 -0.0041678282 -0.059315663 -0.004680232 0.9990999 -0.0421602
0.01046252 -0.0070347637 -0.12803736 0.36046657 0.93092185 -0.058722395
-0.027676774 -0.10176192 -0.23612571 -0.93097985 -0.27259174 -0.24283805
0.036581554 -0.100838214 -0.092568904 0.6839643 -0.7185106 -0.12623492
0.015959317 -0.12052822 -0.17776561 0.33955246 -0.94050884 0.012133793
0.0038209031 -0.115204886 -0.026165836 0.07569103 -0.9448269 0.3187052
0.307435 -0.015355365 -0.08399514 0.059779704 0.8259139 -0.56061804
-0.036380913 -0.08600374 0.007974808 -0.92896277 -0.25992417 0.2635671
0.008587372 0.10482534 0.21052217 0.9253103 -0.2378506 -0.29534364
0.26146194 -0.009356296 -0.079678275 0.083921045 0.8621966 -0.49957412
0.024074376 -0.022409985 0.117653154 0.9109711 0.40284505 0.08858671
-0.046863504 -0.06073376 -0.17373657 -0.9973218 -0.0068404563 -0.07281776
0.40194032 -0.014976193 -0.0712965 0.951867 0.24284692 -0.18701537
-0.26721683 -0.021737311 -0.09032353 0.019066012 -0.8332845 -0.55251557
-0.011039828 -0.0040451866 0.00095157116 -0.06317451 0.9980004 -0.0020634315
0.30734062 -0.033973336 -0.05462762 -0.022047635 -0.9954625 -0.092565134
-0.010508375 -0.058175802 -0.27253035 -0.7052073 0.5013422 -0.5013368
0.042661585 -0.06873691 -0.2181765 0.9820498 0.011987913 -0.1882402
0.18326265 -0.0041134474 -0.02390627 0.03165097 0.9877515 0.1527913
-0.004749107 -0.11817502 -0.08385527 -0.33117336 -0.9411989 0.06684893
0.34537655 -0.027847929 -0.08143596 0.014971334 -0.86369836 -0.5037867
-0.04436288 -0.013008687 0.01741455 -0.23697035 0.9556096 0.1750867
-0.005526121 -0.0036876635 -0.11304132 -0.18527098 0.9811255 -0.055384427
-0.09462158 0.02095001 0.22051123 -0.0060736667 -0.97799474 -0.20854123
-0.29496777 -0.02346048 -0.088396795 -0.031230437 -0.82228583 -0.5682171
0.01692833 -0.0077542155 0.034852486 0.22357252 0.97427016 0.028513338
0.06934835 0.024544798 0.20415887 0.00484144 -0.93320173 -0.35932025
-0.11348881 -0.030647796 -0.05398869 0.21828324 -0.95477605 0.20187885
-0.0506621 -0.006211834 -0.011693603 0.2497151 0.96385705 0.092854485
0.017283542 -0.11976981 -0.19200379 0.42012078 -0.9074681 0.00046386995
-0.033537753 -0.09180265 0.008133873 -0.80333555 -0.46339858 0.37405047
-0.33316657 -0.031010741 -0.060620587 0.095520884 -0.9855253 -0.1400557
-0.11190422 -0.0043078642 0.026034147 -0.06739289 0.9778945 0.19794098
0.1062754 -0.032108482 -0.02837627 -0.043088887 -0.99589956 -0.07954462
-0.035132963 -0.060631722 0.035963047 -0.9915725 -0.045965534 0.12112478
-0.016480811 -0.10936953 -0.02484304 -0.30509895 -0.92550004 0.2244199
-0.31192088 -0.0044111735 -0.028103711 -0.024642337 0.98925585 0.14410295
-0.03177934 -0.029151395 -0.18852791 -0.6499024 0.7428521 -0.16061622
0.04075975 -0.08412044 -0.01615959 0.975596 -0.060587704 0.21104874
0.02417553 -0.08593568 0.044751585 0.84893423 -0.49685243 0.18013427
-0.021239575 -0.029955756 0.16640787 -0.9648506 0.10434884 0.24119402
-0.013698322 -0.120976284 -0.18374056 -0.2497936 -0.9682947 0.0029328384
0.10244395 -0.032518275 -0.083916105 -0.017425321 -0.94378996 -0.33008608
0.3556813 -0.0341699 -0.026949259 -0.03042321 -0.9889958 0.14478189
-0.032908347 -0.113738224 -0.154737 -0.70355195 -0.70898885 -0.048471443
-0.1512487 -0.033193756 -0.06937248 -0.36291263 -0.9137016 0.1828767
-0.02849776 -0.09062882 0.022337075 -0.84376717 -0.4853286 0.22915742
0.04881373 -0.02669467 -0.04331914 0.2576332 -0.9594959 -0.11398552
0.04862909 -0.04100412 -0.13997924 0.8790731 0.45432636 -0.14428462
0.020974707 0.02943355 0.19733337 -0.009384972 0.9304895 -0.36619848
-0.16810268 -0.0022312014 -0.06177357 -0.09885892 0.989846 -0.102136455
-0.06438375 -0.004338286 -0.005194131 0.14590439 0.98699325 0.06750036
0.09529249 -0.03017913 -0.09541585 -0.1768532 -0.9626054 -0.2052161
0.24814683 -0.0044610268 -0.027634032 0.04862274 0.9821359 0.18178266
-0.2784884 -0.029471783 -0.04853713 -0.029107247 -0.9987291 -0.04114637
-0.046435386 -0.074147515 -0.14149559 -0.9764282 -0.21464406 0.022713697
0.20096235 -0.024160003 0.01676011 -0.03559694 -0.5605192 0.827376
-0.28674084 -0.014566677 0.012320378 -0.07725535 0.792643 0.60477155
-0.030646274 -0.053446434 0.077497795 -0.99625474 -0.06920547 0.051837593
-0.020273464 -0.016110677 -0.15479393 -0.56729317 0.8101751 -0.14763048
-0.31655896 -0.011561264 -0.08684908 -0.0113355005 0.845146 -0.5344153
0.12730391 -0.0009859172 -0.0845678 0.22939092 0.9672112 -0.10900607
-0.048538506 -0.10777949 -0.05848033 -0.86615586 -0.24342865 -0.43648192
-0.22508676 -0.031025665 -0.04806981 0.011674607 -0.99948674 -0.029830871
-0.03087895 -0.052538585 0.074137785 -0.9975679 -0.0469741 0.051494937
0.019921986 -0.00947537 0.06171219 0.4827836 0.8753241 0.02697683
0.009876829 -0.0057084835 0.14578263 0.6414836 0.7316814 -0.23052356
0.039829746 -0.097462036 -0.19468367 0.9004344 -0.39906487 -0.17310444
0.1535036 -0.030474868 -0.038679525 0.08847568 -0.9957655 0.02496403
0.058888845 0.02098169 0.22561781 -0.03873958 -0.9983631 -0.042075787
-0.030384678 -0.11584274 -0.15556681 -0.4755008 -0.87922275 0.02943443
0.0002159893 -0.008934614 0.103743285 0.053739224 0.9696734 0.23842342
-0.0095451735 -0.046965264 -0.26000798 -0.6506574 0.6336809 -0.4184418
0.20249908 -0.007798696 -0.08033186 0.018262954 0.91679895 -0.3989312
0.35294333 -0.024289872 -0.08546634 -0.071492925 -0.08242124 -0.99402994
0.0080247875 -0.046381645 0.2274457 0.8342003 -0.51726377 0.19117516
0.026828432 -0.040552933 -0.23025209 0.7399274 0.5585093 -0.3749331
0.0034809448 0.119161345 0.20388 0.62755597 0.5310376 -0.56936157
0.21231715 -0.027882881 -0.076551154 -0.005402065 -0.9834159 -0.1812843
0.26116705 -0.031034397 -0.008994246 -0.014899598 -0.97305435 0.23009375
-0.041507695 -0.045573898 0.009656917 -0.9926464 -0.065637715 0.1017093
-0.16706768 -0.029030709 -0.07222196 -0.14417963 -0.9779503 -0.1510812
0.034833577 -0.058463782 0.026806891 0.9865528 -0.027111534 0.1611789
0.35614005 -0.016883543 0.0011080382 -0.04135254 0.86584026 0.4986086
-0.1261872 -0.030437257 -0.035606798 -0.058087878 -0.99760145 0.037644476
0.044998564 -0.007992961 -0.06254112 -0.1743877 0.98433936 -0.025789041
-0.007580018 0.06795913 0.21867451 -0.99601525 -0.058747817 -0.06709911
0.011032722 0.053245872 0.25103334 0.9577456 0.28536832 0.035892077
-0.26945505 -0.016204666 0.01574932 -0.06900439 0.7546661 0.6524703
-0.29918635 -0.027506836 -0.0742726 0.036618147 -0.9831245 -0.1792354
-0.12929483 0.028966138 0.23586373 -0.4529315 -0.44847545 0.7705341
0.010818906 -0.085339874 0.07469011 0.44091508 -0.86417377 0.24248187
-0.08337899 -0.026679082 -0.079046376 0.19865182 -0.9793392 -0.03784449
-0.06071413 0.03545974 0.22143391 0.110207096 0.98735917 0.11391331
-0.008443988 0.06641943 0.23688564 -0.9890441 -0.092202224 -0.115284845
-0.11991024 -0.013980724 -0.12752193 -0.15226784 -0.37636748 -0.913872
0.012559071 0.09856161 0.27636257 0.8604696 -0.2996597 0.41206327
0.3134569 -0.029578319 -0.08085499 0.060621493 -0.8961811 -0.4395276
-0.037865613 -0.041729257 0.03234494 -0.96067524 -0.12528093 0.24780601
0.23376861 -0.028404396 -0.07340958 0.009786429 -0.98747253 -0.15748693
0.15342535 -0.005392583 -0.0046338523 0.14380611 0.95351624 0.26481432
-0.36593047 -0.034903776 -0.020246377 0.1982434 -0.952673 0.23046385
-0.038414553 -0.0961553 -0.21089594 -0.9636084 -0.21033353 -0.16498059
-0.12338206 -0.030360425 -0.022831889 -0.06897664 -0.9975622 -0.010579006
-0.00520145 0.08461517 0.20067333 -0.85426635 -0.22659636 -0.46784943
0.29033569 -0.033272713 -0.059326015 -0.1032452 -0.9830188 -0.15170516
0.012387401 0.09426477 0.24777369 0.99082965 -0.13511725 -0.00024190177
0.033870406 -0.105784 -0.19621561 0.68127745 -0.7295679 -0.059930857
0.080791265 -0.0027818372 -0.089928895 -0.39935654 0.913778 -0.074323945
-0.40240788 -0.015500948 -0.06270629 -0.9932204 0.10363222 -0.05266481
-0.21230541 -0.0031505 -0.050497856 0.0037046156 0.9991181 -0.041825566
-0.023034438 0.11236448 0.25555134 -0.6024162 0.74768007 0.27940878
0.00533471 -0.011920358 0.124394506 0.38852853 0.90379465 -0.17944604
-0.060022354 -0.02304664 -0.082060166 0.050693404 -0.994237 -0.094461314
-0.08235608 -0.0015567525 -0.11437857 0.9014468 0.42693415 0.07156032
-0.021637695 -0.008643342 0.061866324 -0.3885719 0.9211766 0.021105142
0.04897127 -0.0993206 -0.052384682 0.9660946 0.17449436 -0.19029717
-0.25260666 -0.023552278 -0.08621411 0.002505089 -0.9628945 -0.2698664
0.022277405 -0.11565248 -0.13081141 0.53953975 -0.8278883 0.15328996
-0.24526194 -0.0083981715 -0.08162292 -0.056880467 0.93309593 -0.3551007
-0.25237796 -0.030629316 -0.046817396 -0.02714703 -0.9994987 -0.016288217
-0.004859336 -0.043873426 0.24049394 -0.8745344 -0.44629312 0.18976825
-0.004067127 -0.0037065768 -0.038691975 -0.085310735 0.9957122 0.035765175
0.14871624 -0.030297417 -0.026819121 0.14668238 -0.98756695 0.056531638
-0.21998407 -0.01383553 0.014820574 -0.0044853515 0.6386216 0.7695079
0.08719537 -0.027031137 -0.111097 -0.13683766 -0.9889494 -0.05704839
0.10627334 0.041874833 0.2134364 -0.10462879 0.9944818 0.007663167
0.35449773 -0.03571798 -0.043133568 -0.021337926 -0.9995728 0.019972848
0.22135352 -0.028345736 -0.001462755 -0.025682546 -0.99007726 0.138157
-0.364945 -0.012214957 -0.086533636 -0.00025429283 0.81294316 -0.582343
0.110304214 0.02018744 0.21631403 -0.15567373 -0.9854374 -0.06840141
0.027296705 -0.028525265 0.08874655 0.99170643 0.080291666 0.10035701
0.11601002 0.0022834036 -0.05262141 0.07104232 0.9941981 0.080766454
0.04083812 -0.04401638 -0.06982076 0.99532795 0.056782193 0.07809025
0.030051954 -0.010321477 0.014151908 0.27939728 0.9510014 0.13241406
-0.2590357 -0.0056399168 -0.016056012 0.01939714 0.97560316 0.21868296
0.09734949 0.028354725 0.24837075 0.22296235 -0.5421506 0.8101608
0.1533928 -0.028016152 -0.0015782411 0.08784906 -0.9950355 0.046763755
0.12071314 -0.00033041753 -0.09909785 0.2843893 0.9568609 -0.059497196
-0.0123725375 -0.010252134 0.21047069 -0.99147725 -0.027526746 0.12733862
-0.0109481225 0.07587687 0.25383556 -0.98981464 -0.1412996 0.017361326
-0.007425471 0.00089616654 0.16038519 -0.77312905 0.5628242 -0.2924046
-0.00017316313 -0.071459934 0.16309598 -0.041371305 -0.9984569 0.037044495
0.012289711 0.04867691 0.25453842 0.9316188 0.35715482 0.06728137
-0.10550405 0.0037893318 -0.038546253 -0.016793171 0.99688154 -0.0771056
0.076755956 0.020430097 0.2304258 -0.08286798 -0.9964837 0.012376979
-0.04554797 -0.00886781 0.0015205909 0.17236476 0.97653747 0.1290929
0.026610767 -0.024022747 -0.20061985 0.37192827 0.91477704 -0.15764606
0.29854226 -0.009941978 -0.074331336 0.071283326 0.89726764 -0.4356942
0.1469079 -0.0060733836 -0.08867766 0.16561417 0.95837736 -0.23256136
-0.2864842 -0.0041093724 -0.058734488 -0.009778197 0.99894613 -0.044844046
-0.15512119 -0.028010478 0.001890522 -0.034332268 -0.99689835 0.070816964
0.016954077 -0.11463463 -0.24939443 0.6905812 -0.6827933 -0.23851821
0.2802849 -0.007133958 -0.019018888 0.012085462 0.99128014 0.13121575
0.07806431 -0.0014696084 -0.06062513 -0.32775852 0.94444793 -0.02434083
0.1556702 -0.027460646 0.0057179118 0.058294605 -0.99645156 0.060712144
-0.23362574 -0.010504411 0.0062357774 -0.02368843 0.9527124 0.30294877
-0.0021683027 0.014269855 0.16808231 -0.77291745 0.3677902 -0.51703864
-0.0013680467 -0.0010690598 0.14988546 -0.17498852 0.7587897 -0.62738925
0.001958855 -0.0836955 0.10074657 0.17371252 -0.96050817 0.21736598
-0.35303253 -0.032484457 -0.022965372 0.12517728 -0.98500544 0.118721895
0.044923685 -0.018902108 0.019331891 -0.52962947 0.41817 0.7379881
-0.3677674 -0.004613282 -0.059283093 0.023701882 0.9976407 -0.06443045
-0.04812565 0.02683394 0.20102686 -0.03900703 -0.7095101 -0.70361483
-0.36690077 -0.02949819 0.008204461 0.0830537 -0.9337102 0.3482633
0.14671208 -0.0015183088 -0.06291707 0.054668806 0.9963223 -0.06597959
0.028877394 -0.07764655 0.046961505 0.7823677 -0.56501704 0.2620239
-0.075958356 0.025900256 0.24862489 -0.050807916 -0.12387454 0.9909963
0.02462738 -0.1114896 -0.108363606 0.578076 -0.8095189 0.10250582
0.00783051 -0.12380578 -0.14356452 0.21887231 -0.975717 0.008441644
-0.16468813 -0.0014175732 -0.05460073 -0.046520784 0.99861974 -0.024380365
-0.030826755 -0.023869017 -0.1583417 -0.557841 0.82659185 -0.07456067
0.38451523 -0.005637593 -0.064262986 -0.055994917 0.9941602 -0.09225045
-0.04183345 -0.04191639 -0.011307883 -0.99565953 0.09306961 -0.00024308094
-0.35756725 -0.023853559 -0.09151598 0.02237982 -0.17102386 -0.9850127
0.10578225 0.04009197 0.20424317 -0.10961296 0.9078219 -0.40477696
-0.021570822 -0.026525637 -0.2080527 -0.57349175 0.77067924 -0.27777815
0.011397622 0.022229664 0.18821721 0.9524132 0.024182366 -0.3038491
-0.045250017 -0.066824146 -0.19611488 -0.9829096 0.08771845 -0.16184612
-0.009240286 -0.0153416125 0.23472556 -0.99814355 -0.058568742 0.016707817
-0.016853169 0.020608874 0.20984273 -0.7086357 -0.7055745 0.00024762287
-0.191954 -0.03036128 -0.04928549 -0.027469888 -0.99489725 -0.09708203
0.057244238 -0.029420093 -0.002408435 -0.12862921 -0.99168795 0.0030793534
-0.13158855 -0.008203924 0.02810985 -0.15752022 0.9760549 0.15001394
-0.06061523 0.02416808 0.20797707 -0.0051375898 -0.973113 -0.23027094
-0.07484966 -0.00092090847 -0.030996863 0.30739793 0.95152235 -0.01056989
-0.043582015 -0.043243874 -0.040947597 -0.98379076 0.17877893 0.013923125
-0.1952402 -0.026905619 0.008133357 -0.050189644 -0.97530866 0.21506764
-0.035178564 -0.11003484 -0.16137648 -0.8645914 -0.4813195 -0.14426787
-0.041534953 -0.030942975 -0.08312253 -0.9991268 -0.0058008996 0.041376192
-0.18438062 -0.028321085 -0.011877958 0.0011593659 -0.99973947 0.022798318
-0.026839959 0.108658224 0.2767906 -0.4078339 -0.7762311 0.4807669
-0.2063332 -0.02881845 -0.017239671 0.03959149 -0.9977573 0.053971093
0.18080549 -0.0042329035 -0.022691146 0.021699548 0.9879135 0.15347964
0.057729933 0.020859387 0.22773376 -0.0004258677 -0.9967738 -0.08026085
-0.004038088 -0.1247139 -0.14676191 -0.1260931 -0.99179524 -0.021043263
0.17765145 -0.030041821 -0.045464616 -0.046607494 -0.9983555 -0.03337703
-0.14682959 -0.03555618 -0.06976898 -0.35386604 -0.91992956 0.1688442
0.32526225 -0.033723373 -0.03339332 -0.00018145694 -0.9909969 0.13388498
-0.02184851 -0.056283057 0.12087959 -0.75442266 -0.5805655 0.3062517
-0.14313316 -0.0009535669 -0.03296445 -0.12177233 0.9854867 0.11826863
0.053864773 0.024893498 0.2015873 0.059710998 -0.93171906 -0.35823756
-0.26393017 -0.018561078 0.018344596 -0.021536516 0.41144618 0.9111796
0.21060395 -0.0046588085 -0.06787976 -0.0018050997 0.99830395 -0.058189712
0.02382859 -0.0660797 -0.2649848 0.88321555 0.3921075 -0.25725862
-0.029609466 -0.027046312 -0.18776879 -0.6683808 0.7305551 -0.13984397
-0.23255037 -0.027553424 -0.07066959 0.024700345 -0.9885568 -0.14881298
0.16600879 -0.002548363 -0.05773106 0.07155043 0.9949351 -0.07060159
0.15609412 -0.0042131185 -0.07794351 0.06740448 0.9690512 -0.23747934
-0.04580096 -0.05880612 -0.037545837 -0.9989477 0.0088026775 0.04501179
0.25361654 -0.032377623 -0.021860862 -0.0006003204 -0.9960152 0.08918178
0.39242518 -0.0049733603 -0.035618257 0.008262107 0.9773745 0.21135484
0.10339687 0.004805097 -0.10341217 0.24092689 0.9695661 0.043539934
0.087487094 -0.030219585 0.013135433 -0.088491336 -0.9753394 0.20219362
-0.08302006 -0.028059851 -0.038026545 0.04174094 -0.99873465 -0.028048266
-0.13295844 -0.0032899857 0.0028437066 -0.19578096 0.97058904 0.14009532
0.3775406 -0.0063187885 -0.06352943 -0.16140406 0.9824712 -0.093268506
-0.20425951 -0.02786827 -0.061698735 -0.0046922364 -0.99517936 -0.09795993
-0.03571137 -0.110541545 -0.13988875 -0.85065126 -0.5196515 0.07971611
-0.037938673 -0.10293825 -0.19077842 -0.9373966 -0.34688938 0.030909942
0.010173881 -0.0051843957 0.09698469 -0.10207543 0.9895149 0.10218112
-0.019247068 -0.023623768 0.17701998 -0.9939562 0.0014559905 0.10976803
-0.015173557 -0.10146737 -0.27071854 -0.6913238 -0.5071817 -0.51462424
0.0086850645 0.053797763 0.22132777 0.9381204 0.34296307 -0.04802542
0.0036625126 -0.003997557 -0.038122877 0.13802047 0.989207 0.049191676
0.022358129 -0.11368574 -0.1145001 0.51687115 -0.85329473 0.06879246
0.00697689 -0.074327946 -0.28721622 0.16045891 0.16847488 -0.972558
0.06456097 -0.02611188 -0.06266407 -0.184968 -0.9782563 -0.093816236
-0.015964214 -0.009590989 -0.12609246 -0.48055547 0.8651524 -0.1434495
0.13656418 -0.022466946 -0.104341805 0.20001489 -0.92591476 -0.32043073
0.048899133 -0.0074004615 -0.0644258 -0.20240144 0.9789359 -0.026797654
-0.03490458 -0.03842417 0.053941447 -0.98472804 -0.14990447 0.08853928
-0.33085027 -0.031601895 -0.031362243 0.027576802 -0.9949207 0.09681105
0.06497831 -0.008714598 -0.09906377 -0.23009755 0.9679177 -0.100947835
0.04629918 -0.021133663 -0.09307105 0.9809138 -0.14978035 -0.12399124
-0.020573273 -0.022132613 0.16114944 -0.97689 0.1685663 0.13142015
0.042771555 -0.05622523 -0.05989357 0.97471976 0.22269408 -0.01813024
-0.24949929 -0.016648985 -0.0931276 -0.09605581 0.5157723 -0.8513238
0.34922072 -0.008732764 -0.06886078 -0.053323712 0.9363941 -0.34687558
-0.14580151 -0.0009351372 -0.03595283 -0.12182565 0.9859182 0.114559434
0.012573477 0.09681217 0.2685465 0.9812954 -0.18965283 -0.033031277
-0.3457763 -0.030893788 -0.011573313 0.05964717 -0.99631375 0.061653905
-0.029089842 -0.021608712 -0.15154608 -0.50140846 0.85420805 -0.1375432
0.020225115 -0.016983513 -0.17522949 0.5214389 0.84408957 -0.12495736
0.032290082 -0.025370115 -0.19377974 0.4205493 0.89526546 -0.14709857
-0.032145698 -0.099648885 -0.007638629 -0.0741491 -0.98496187 0.15605125
0.25568286 -0.030847186 -0.008803013 -0.024187008 -0.97038245 0.24035977
-0.025194308 -0.11435605 -0.052825294 -0.2866973 -0.95621103 -0.05886473
-0.100594744 0.022364518 0.21142973 0.17376292 -0.9794209 -0.10267062
0.2794525 -0.015080779 -0.08541352 0.030722078 0.82129395 -0.5696774
-0.24503627 -0.030045649 -0.021489944 -0.022820998 -0.99806273 0.057878684
0.033910044 -0.058959324 0.033601366 0.9896068 -0.03673879 0.13902755
-0.06497299 0.024089156 0.20877962 0.021454332 -0.97913027 -0.20209801
0.13831611 0.032988135 0.2196379 0.7259132 0.67176694 0.14757764
-0.04480296 -0.0331332 -0.124878354 -0.86976415 0.4886353 -0.06888943
-0.06677984 -0.027582522 0.011134237 0.019419393 -0.9942729 0.10509229
0.0021882486 0.067089185 0.19664907 0.9612892 0.036051482 -0.27317262
-0.04288124 -0.06138781 -0.20415804 -0.97976315 0.14530653 -0.1376596
0.006495308 0.088974066 0.21496028 0.929375 -0.22961357 -0.28903252
-0.04521658 0.032648265 0.23371829 0.035356887 0.9574996 0.2862593
-0.050810844 -0.017990345 -0.09571512 0.45134538 -0.76823956 -0.4539772
-0.38502097 -0.037927173 -0.03075195 -0.3147927 -0.909904 0.27014858
-0.258483 -0.029513357 -0.017545372 -0.038834244 -0.9988387 0.028516041
-0.014964196 -0.05867949 0.1431365 -0.8556642 -0.51064885 0.08412238
-0.003719951 -0.06898739 -0.2848059 -0.3895773 0.36154264 -0.8470634
0.03175316 -0.04925195 0.055360194 0.990588 0.0016022084 0.1368679
-0.40223473 -0.021065595 -0.061780028 -0.99462944 -0.1012447 -0.021490406
-0.039805405 0.03499178 0.22190209 0.014399827 0.99863183 0.050269876
0.016974118 -0.02405922 0.1928343 0.98043966 0.08114479 0.17931442
-0.12211792 0.027719362 0.2386275 -0.35087714 -0.48134685 0.8032375
-0.07567244 -0.002470729 -0.07207428 0.25150397 0.9668044 -0.045112424
-0.3451244 -0.03305987 -0.039364234 0.10178876 -0.99416214 0.035785347
0.02026676 0.04107718 0.22203155 0.6863884 0.6829936 -0.24978144
0.003877913 -0.030291943 0.2752417 0.6598362 -0.48799822 0.571379
0.04092893 -0.036172748 -0.026946567 0.99609643 -0.07782196 0.041661076
0.148826 -0.026211219 0.01594594 0.074775025 -0.95693344 0.2805122
0.33499897 -0.032650925 -0.065839104 0.09738507 -0.966931 -0.23571303
-0.30025053 -0.0038371733 -0.046503175 -0.0011594425 0.9998055 -0.019687638
-0.033754878 -0.06514069 0.04502165 -0.97081405 -0.15431122 0.18359792
0.35042536 -0.008069804 -0.06643136 -0.030219374 0.9755946 -0.21749018
0.016311277 -0.0066282693 0.016728105 0.25276574 0.96567893 0.059780266
-0.15185842 -0.0010492676 -0.059322644 -0.053623997 0.9983813 -0.018951207
0.15469083 -0.027959289 -0.0024768328 0.060025483 -0.9966633 0.055311043
0.14390963 -0.030231826 -0.077514306 0.14350773 -0.8756504 -0.4611311
0.009945611 -0.0053195935 0.071467295 0.27305096 0.9594109 -0.07052555
0.1585918 -0.0044804392 -0.078333125 0.060815748 0.96938366 -0.23790103
0.010530686 -0.03817389 0.23021173 0.9813381 -0.16790381 0.093722455
-0.029345196 -0.037479542 0.112403326 -0.9886667 0.1427911 0.04635477
0.15906256 -0.007881929 -0.08802941 0.09987207 0.80591214 -0.5835505
-0.38393524 -0.01015182 -0.08226783 -0.06461331 0.8524078 -0.51887
-0.3692228 -0.010225374 -0.012991285 0.036687482 0.9736185 0.22521316
-0.12988785 -0.030209515 -0.01746803 -0.007055816 -0.9998053 -0.018429028
-0.039621145 -0.03452009 -0.16056229 -0.86399126 0.49194083 -0.107300185
-0.022484021 -0.11438673 -0.11142847 -0.41718447 -0.901958 0.11148545
-0.39590102 -0.017924042 -0.08578445 -0.5638989 0.20709537 -0.7994557
0.09405462 -0.03293663 -0.07922403 -0.21987906 -0.9281501 -0.30031732
-0.3381837 -0.0042484747 -0.03982079 -0.051028226 0.9955897 0.07872232
-0.2129049 -0.027098905 -0.06874047 -0.0049147755 -0.97901136 -0.20374657
0.11637022 -0.00867558 0.028528279 0.2581882 0.88566995 0.38591135
0.010531626 0.07386537 0.2651739 0.98432875 -0.082548074 0.15582903
0.043686368 -0.04431335 -0.09187272 0.9626148 0.22072162 0.15701832
0.3412522 -0.02743664 0.0013646237 -0.011475082 -0.9471423 0.3206086
0.04355069 -0.03789528 -0.16418016 0.8143492 0.57105017 -0.10362027
-0.2783242 -0.025094237 -0.08322689 0.027836746 -0.9690884 -0.24513842
-0.0028876674 -0.12432643 -0.12646435 -0.1821529 -0.9812644 0.06277391
-0.0028385005 -0.0058631906 -0.15459807 -0.31842676 0.94752914 -0.028159216
-0.010509629 0.07727055 0.24174656 -0.97696185 -0.13843623 -0.162422
0.0022864202 0.1295818 0.22953439 0.7444683 0.65600014 -0.12422122
-0.070348784 0.034162562 0.23518136 0.17600696 0.95502496 0.23863967
-0.042779434 -0.0075085196 -0.06021014 -0.0117154475 0.9990678 -0.04154906
-0.19079487 -0.010625468 -0.089848824 -0.088231295 0.851093 -0.517548
-0.022742592 -0.006026681 -0.05417416 -0.08868334 0.9960499 0.004475963
-0.020744774 -0.07588189 -0.26862586 -0.89729065 0.19337972 -0.39682958
-0.095395006 0.0061691576 -0.10606919 0.21233281 0.9566288 0.19943947
-0.042665504 -0.09042156 -0.17566726 -0.95687884 -0.29020575 0.012790311
0.012247226 0.003963108 0.18487398 0.98847425 0.15138727 0.00078431185
0.27904648 -0.019102644 -0.08935219 0.035093393 0.3226456 -0.945869
-0.36140397 -0.029801114 -0.08472176 0.10724521 -0.8634744 -0.49285942
-0.37850195 -0.030955361 0.006452905 0.013650659 -0.9466768 0.32189554
-0.39796445 -0.012057691 -0.07756271 -0.74913365 0.5776477 -0.32422525
0.036209524 -0.08664118 -0.23078035 0.89276344 -0.3254549 -0.3115327
0.13104264 -0.0028595882 -0.011968294 0.07482245 0.98792464 0.1356708
0.013454636 0.10334259 0.26041394 0.9633925 -0.25977698 -0.06626349
-0.0055939546 -0.10711001 0.0076153437 -0.26367426 -0.9516565 0.15756148
0.11941512 -0.024072498 -0.108918026 0.14197366 -0.92209363 -0.35998178
-0.027677087 -0.008759457 0.020789023 -0.2629551 0.958402 0.11099657
-0.008813883 0.054564416 0.21287794 -0.93480706 0.3522786 -0.045117106
-0.05580007 -0.021873215 -0.08875468 0.11254592 -0.9818703 -0.1525258
0.0027732009 0.12534148 0.21403222 0.62512696 0.7572702 -0.18909802
0.01941484 -0.01486576 -0.16541523 0.5696896 0.8149877 -0.10606052
-0.30404496 -0.0060338713 -0.018368194 -0.05597884 0.9582649 0.28034765
-0.13701618 -0.0030017318 -0.005570178 -0.16220771 0.98293525 0.086758256
0.38613176 -0.0045207976 -0.048075717 -0.005232425 0.9982888 -0.058242146
-0.12435509 -0.00034081712 -0.004583554 -0.18141748 0.9818627 0.055073965
-0.0026172223 -0.12036465 -0.063933626 -0.2584875 -0.96594363 0.011710239
0.12241867 0.02046011 0.20757626 0.09453878 -0.97141635 -0.21774454
-0.1192224 0.038592063 0.2215823 -0.16345389 0.9676706 0.19208416
-0.29907927 -0.012849986 -0.089473136 -0.04526198 0.8258043 -0.56213754
0.033256453 -0.02717785 0.057425756 0.9500828 0.16862716 0.26250252
0.0024059939 0.0637703 0.19625251 0.9160167 0.24754725 -0.31564823
-0.017159306 0.020531978 0.2326414 -0.27394143 -0.9603629 0.05156734
0.0070593385 0.096089214 0.21212655 0.9719067 -0.13087581 -0.1956241
-0.05941826 -0.0043707225 -0.01696179 0.10685691 0.9930481 0.049367532
0.048187617 -0.06873395 -0.19491206 0.96798044 -0.10947679 -0.22589558
-0.041977767 -0.037842873 0.014600167 -0.9653642 -0.2384981 0.10578557
0.018278016 0.10562837 0.25271183 0.29284415 -0.9380632 0.18514782
0.022914901 -0.059139278 -0.25977486 0.8842394 0.34049475 -0.31966245
-0.060005568 -0.0042487686 -0.0516583 0.13775693 0.99024224 -0.021055643
-0.012214861 0.09209424 0.26263353 -0.9906156 -0.12590535 0.05318422
-0.03685779 -0.103708774 -0.20179029 -0.8045672 -0.5774663 -0.13857964
0.024786828 -0.11216134 -0.20799047 0.7164642 -0.68551445 -0.12941784
0.049748 -0.007463532 -0.066986285 -0.20162375 0.9751745 -0.09155653
0.095596835 -0.034462478 -0.069697045 -0.29569128 -0.92104965 0.25344467
0.022436827 0.032664876 0.20606889 0.042437956 0.939856 -0.33892444
-0.086317025 0.0027719773 -0.03111513 0.25083482 0.96681243 -0.04853535
-0.046957057 -0.054944802 -0.1682874 -0.9823845 0.13439283 -0.12984335
0.20763107 -0.0039320616 -0.0543376 0.009827988 0.99935925 -0.034417022
-0.10355523 -0.03261797 -0.08294341 0.4102127 -0.89918697 -0.15227702
-0.12299772 -0.022999208 -0.11416226 -0.20064239 -0.9297391 -0.3087521
-0.18786192 -0.017236346 -0.09790984 -0.09873131 0.6521472 -0.7516356
-0.04317806 -0.08914882 -0.022004869 -0.9856362 -0.04576555 0.16256319
0.124185905 -0.02803607 -0.09973466 0.282977 -0.76309764 -0.5810387
0.042364527 -0.028316407 -0.09773246 0.91073996 -0.40831545 0.061896298
0.028384255 -0.046480753 0.10738755 0.96911484 -0.22694404 0.09650335
-0.03172163 -0.011224033 0.032691706 -0.39210677 0.910922 0.1283486
-0.115497306 0.0030515455 -0.02980493 -0.1523858 0.9882985 0.0066805454
0.32333788 -0.02492261 -0.08741514 0.12964208 -0.24298105 -0.9613288
-0.002530675 -0.12415954 -0.17710908 -0.25260288 -0.9675384 0.007824636
0.21478821 -0.027295377 0.007019069 -0.008515067 -0.9911962 0.13212723
-0.35435578 -0.031569507 -0.07566805 0.2309229 -0.95472115 -0.18756886
-0.062993705 -0.024966197 -0.06087802 0.078235805 -0.98677087 -0.14199437
0.12298161 -0.00051225594 -0.09194417 0.2974164 0.9521044 -0.07099814
-0.014335619 0.12275565 0.23414521 -0.7314727 0.67605054 -0.08890045
-0.008174678 -0.082898855 0.08403414 -0.47127542 -0.8604678 0.19363528
0.22747894 -0.003960381 -0.030415516 -0.0067917546 0.99687445 0.07870982
0.30384272 -0.025082568 -0.08828642 0.007819794 -0.39361268 -0.9192431
0.38895735 -0.022674095 -0.08816579 0.31315303 -0.16895466 -0.93455315
0.19135253 -0.0046501043 -0.07056691 0.036323905 0.9925051 -0.11668023
-0.09556283 0.006378832 0.0037620608 0.0432691 0.9970759 -0.06298667
-0.20679796 -0.026981466 -0.069260366 -0.0021453605 -0.98320526 -0.18249068
0.0067004645 -0.004878623 0.021625558 0.11206926 0.9911033 0.07179661
0.013296637 0.11890359 0.23436823 0.76976764 0.6343141 0.071437486
-0.0032364428 -0.010749836 -0.18001737 -0.2781104 0.93981206 -0.19851407
0.0479447 -0.07250563 -0.19439484 0.97234553 -0.17710707 -0.15224056
0.13216937 -0.02609759 0.02192523 0.14771129 -0.9038127 0.40162665
0.19926047 -0.01023262 0.0026485114 0.0046723923 0.9293169 0.36925372
-0.35036275 -0.013447485 -0.08856088 -0.01860138 0.76742846 -0.6408647
0.042835914 -0.09169454 -0.18976502 0.9379222 -0.33343065 -0.095529646
0.038836285 -0.008350935 -0.0186244 0.08632058 0.99553114 0.0382955
0.028635334 -0.09303013 0.009576495 0.55854475 -0.67146885 0.48698807
-0.2928133 -0.028537769 -0.009607752 -0.004417345 -0.99998313 0.0037612282
-0.20113516 -0.023083467 0.016649086 -0.07263849 -0.8579681 0.5085414
-0.30560148 -0.02893054 -0.013181258 0.07329533 -0.99729735 0.0050674444
0.15068747 -0.030671932 -0.036545962 0.1191856 -0.99180335 0.046051905
0.009808063 -0.06756707 0.15052271 0.77733 -0.61459625 0.13427413
-0.09240889 -0.0091409795 0.037895568 0.13742185 0.9482695 0.2861822
-0.012156523 -0.0015538 0.17308807 -0.9554042 0.267184 -0.1257598
0.04364252 -0.07136056 -0.06736467 0.99865055 0.027032563 -0.044343155
-0.037093095 -0.106581174 -0.027731478 0.32941896 -0.7832277 0.5272926
-0.01976156 -0.007954998 0.040473133 -0.1416559 0.98929685 0.0350064
0.08434328 0.039129887 0.2191918 -0.112664 0.992279 -0.05185784
0.031569704 -0.045998625 0.05759817 0.9928929 -0.036300223 0.11333972
0.2507375 -0.004255477 -0.062351782 0.013400579 0.9979777 -0.062137574
0.020055752 0.02412931 0.26711354 0.74293965 -0.07140772 0.66553855
-0.09392344 -0.026513608 0.023849802 0.08646626 -0.93974346 0.33076572
-0.003680813 0.05254928 0.17581291 -0.8737636 0.32590145 -0.3610061
-0.025603423 -0.024613181 0.1374181 -0.93966365 0.31272805 0.13868432
-0.0074264742 -0.040730674 -0.2470516 -0.57915205 0.80093986 -0.1519152
-0.0903075 -0.003759767 0.021602936 0.22468643 0.9155946 0.33347055
0.09297429 -0.03323978 -0.077523075 -0.2627676 -0.89658874 -0.3564854
0.020558061 -0.0070805354 -0.08040315 0.14269187 0.988944 -0.04035844
-0.024234012 0.022790395 0.22336945 -0.09923756 -0.9927695 -0.06753184
-0.01762941 -0.015427599 0.15500584 -0.8196353 0.57072693 0.04968693
-0.017112564 -0.013479677 0.16208239 -0.89965856 0.42319068 -0.10735061
0.007802151 0.056462325 0.22347067 0.9362305 0.34895784 -0.04124294
-0.028056664 -0.09453338 0.016289875 -0.8719859 -0.43852764 0.21756405
-0.00961059 0.05350198 0.21761988 -0.9136298 0.40515938 -0.03356339
-0.020327833 0.02056523 0.26278612 -0.93141234 -0.3330706 0.14674833
-0.046035185 -0.07618978 -0.14303057 -0.9786282 -0.19938116 0.05033807
0.13293192 -0.027092405 -0.09541512 0.23942177 -0.9212509 -0.3065518
0.07868881 -0.028184704 -0.07082172 -0.18919411 -0.9817122 0.021136412
-0.030479578 -0.07767769 0.046418108 -0.9171698 -0.35199973 0.18680394
-0.042296812 -0.091688 -0.16522004 -0.9400667 -0.3404041 -0.019988753
0.22824499 -0.025900025 -0.08567234 -0.03347837 -0.9455755 -0.32367614
0.23214623 -0.032776725 -0.05104185 -0.007878612 -0.9929475 -0.11829281
0.08094272 -0.015640324 -0.12126516 0.042270374 0.2604367 -0.96456516
0.04123416 -0.096457295 -0.16252853 0.8616199 -0.50710213 -0.021416912
-0.06345096 -0.010081993 0.022536064 0.32500282 0.85200965 0.41042998
-0.12438006 -0.035819843 -0.06709696 0.024088144 -0.9492728 0.31352973
-0.097269215 0.035665616 0.19905758 0.17976011 0.7423756 -0.64541835
0.0111107705 -0.019111812 0.2503514 0.9968219 -0.079245634 0.008137508
-0.16310403 -0.028516566 -0.0093528535 -0.011595186 -0.9992138 0.03791115
-0.055618525 -0.017717805 0.027516834 0.20914924 -0.25181246 0.9449059
0.027456375 -0.063304946 -0.2521779 0.8873287 0.37392208 -0.26987055
0.07797267 -0.02645014 -0.09839885 -0.16820893 -0.9819829 -0.0861123
0.124113664 0.023547575 0.23806417 0.17434272 -0.8501283 0.49687675
-0.35938045 -0.006485962 -0.069924854 0.05283194 0.9867181 -0.15361011
-0.01335944 0.11399165 0.2110475 -0.9099995 -0.01480075 -0.41434515
0.012134527 -0.10450095 -0.27916428 0.49277613 -0.6925941 -0.52676857
-0.32979575 -0.0042928928 -0.057930492 -0.015745336 0.9965102 -0.08197306
0.22449148 -0.004236051 -0.059170853 -0.014646199 0.9988067 -0.046590455
0.022516929 -0.10359153 -0.016363489 0.6605345 -0.7259627 0.19150017
0.05043566 -0.012610545 0.012141573 -0.23303443 0.9271016 0.29356003
-0.014441622 -0.1046342 0.002975752 -0.33348805 -0.9309709 0.14858942
0.23062117 -0.031863976 -0.019929444 -0.023847917 -0.9967456 0.07700383
0.29420385 -0.034227557 -0.035514325 -0.04137215 -0.99645907 0.07319571
-0.029411037 -0.05338339 0.10094346 -0.9864759 -0.15712136 0.046670053
0.009198435 0.12304981 0.24556844 0.83961964 0.53830415 -0.072577596
0.16272847 -0.0026284773 -0.031367656 0.030362267 0.9914407 0.12697841
-0.009789985 -0.0046234634 0.25290108 -0.9989915 0.04083283 0.018672783
0.019875212 -0.009418503 0.06025858 0.48290706 0.87554795 -0.0147158215
0.01720642 -0.12004065 -0.17985848 0.3694918 -0.9289707 -0.022120038
0.04392301 -0.028681058 -0.037610266 0.4937559 -0.86856353 -0.042454753
-0.089583665 0.031031938 0.1961914 0.19077554 0.6161984 -0.7641362
0.0052158176 0.13092005 0.27132186 0.44079325 0.89661205 0.04228618
-0.12576878 -0.01631518 0.035977557 -0.29734695 -0.32450303 0.8979324
0.068242855 -0.028603645 -0.036216404 -0.08493609 -0.995417 -0.043941367
-0.011281129 0.016806742 0.22786222 -0.73108935 -0.68030304 0.051923763
0.0072947373 0.061462376 0.23541537 0.9815342 0.07708674 -0.17506643
-0.124651544 -0.030309621 -0.02855983 -0.06123992 -0.99799067 0.016256027
0.35409245 -0.03515166 -0.034866717 -0.04859744 -0.993413 0.10377358
0.09142534 0.024072386 0.20565097 0.010687252 -0.8967986 -0.4423099
0.25424528 -0.033169534 -0.034864184 0.0137416655 -0.9995269 0.02751488
0.019196657 0.11678729 0.23280299 0.24340156 0.96682006 -0.07755391
0.043241277 -0.070331186 -0.07602027 0.9954173 -0.07450137 -0.05995044
0.012671727 -0.008733171 0.21999498 0.992704 -0.04454868 0.112045765
0.045498542 -0.088829756 -0.17206806 0.8776132 -0.4790041 -0.018711098
0.121580504 -0.0017302586 -0.011809889 0.11217628 0.9803586 0.16221441
-0.0939812 0.003936938 -0.035924572 0.11101799 0.99272406 -0.046624828
0.015214179 -0.007145628 -0.09639821 0.26976067 0.95966977 -0.079140246
-0.014787808 0.12797263 0.26338595 -0.6044141 0.7833793 -0.14491515
0.03836887 -0.055648856 0.008783932 0.98308265 -0.062642716 0.17211747
-0.10831416 -0.012360176 0.042910937 -0.05533666 -0.27210978 0.96067375
-0.019660046 0.109386325 0.281178 -0.21057156 -0.6055102 0.7674745
-0.33144435 -0.012613353 0.0025123947 -0.09984501 0.9173479 0.385362
0.016130384 -0.066739134 0.12412957 0.8588617 -0.45132422 0.2422047
-0.3480107 -0.03139822 -0.070536315 0.13646777 -0.9719667 -0.19146124
0.043067295 -0.059494562 -0.036737956 0.995712 -0.013856344 0.09146402
0.31837246 -0.006135878 -0.0593639 0.05920732 0.9786663 -0.19674031
-0.046621468 -0.068981454 -0.12636735 -0.98643446 -0.1470711 0.07291842
-0.008289026 -0.10476464 -0.27690145 -0.48901942 -0.5791024 -0.65230393
0.02669656 -0.010220847 0.020559374 0.22364977 0.9693856 0.10135239
-0.06529759 -0.02179163 -0.10171152 0.13727215 -0.9887095 -0.060082026
0.0029292065 -0.082509 0.105378374 0.18453446 -0.96359915 0.19345205
0.007295288 0.04403939 0.18282008 0.9918629 0.041998588 -0.120184064
0.012349421 -0.116255395 -0.090450935 0.49846706 -0.8645522 0.06387576
0.0015861953 -0.004787853 0.0547821 0.035589207 0.9993034 0.011230269
-0.048173703 -0.063299395 -0.15130591 -0.99715066 -0.052447177 -0.054219764
-0.055058222 -0.019116294 -0.0981863 0.47158638 -0.7614364 -0.44477063
0.26587287 -0.007025149 -0.07425918 0.087206304 0.93224895 -0.351151
0.049479548 -0.06275269 -0.17408007 0.9987699 0.0335128 -0.036545567
-0.03838359 -0.04512243 -0.20452432 -0.93806094 0.29159817 -0.1871155
-0.1293766 -0.023653017 -0.10873566 -0.14742486 -0.9119482 -0.38290527
0.31123704 -0.016981898 -0.085947625 0.090711586 0.8239824 -0.559307
0.010126401 -0.099280424 0.03743392 0.52002645 -0.7811683 0.3454687
0.23381247 -0.004982608 -0.022694804 0.03566653 0.98688686 0.15742363
0.009356466 -0.11162809 -0.27167004 0.29092586 -0.8071852 -0.5136285
-0.010622552 0.08627329 0.22964913 -0.9664353 -0.24448442 -0.07893135
-0.31496513 -0.025905078 0.012129323 -0.024118587 -0.91024226 0.41337302
0.03280033 0.029865041 0.25115895 0.33142707 0.8788349 0.34322783
-0.012317729 -0.056687336 0.16670874 -0.79895896 -0.566779 0.20106247
-0.032030974 -0.009191972 -0.093758315 -0.21005489 0.956431 -0.2027725
-0.02271469 -0.009268028 0.06663852 -0.4417524 0.89474565 0.065461405
0.3318755 -0.02993775 -0.0071364753 -0.05352131 -0.9521098 0.30103555
0.091789044 0.0013051527 -0.033607822 -0.1251784 0.9910233 -0.046938118
-0.030995557 0.11786902 0.27896354 -0.6170679 0.33756182 0.71083
-0.009813486 -0.0065689944 0.23105593 -0.99767387 0.006291997 0.06787693
0.10370816 0.03689522 0.19903801 -0.088252604 0.7925775 -0.603351
-0.08681598 -0.025347319 0.02553875 0.0749265 -0.860728 0.50352097
-0.09160464 -0.030538164 -0.018990766 0.134748 -0.98635596 -0.09457795
-0.0035274108 0.0010363628 0.15404762 -0.6474804 0.6193199 -0.44408542
0.17816596 -0.0029003401 -0.04515639 0.059863556 0.99814737 -0.010874591
-0.17225432 -0.002630058 -0.0625617 -0.08392184 0.99383837 -0.0724042
-0.044397626 -0.047512375 -0.041143198 -0.97953016 0.19516319 -0.04931579
0.13752648 0.02405702 0.21791288 0.5585058 -0.8294936 0.0034300652
0.1951032 -0.03142713 -0.052894797 -0.06995278 -0.99359024 -0.08879788
0.2014337 -0.011013649 0.0045600263 0.042198714 0.9284992 0.36892882
0.015897324 -0.005655276 0.0041629532 0.3294138 0.9437686 0.028057676
0.21927506 -0.011352774 -0.08594947 0.049932484 0.8710075 -0.48872563
0.13884154 -0.029695073 0.0010229012 0.15088348 -0.9782647 0.14224066
-0.020526618 0.11514943 0.2500886 -0.660136 0.7203102 0.2130111
-0.03726442 0.022669105 0.22484776 -0.0018613824 -0.999898 0.014158713
-0.056067605 -0.0074278177 0.003288745 0.13941659 0.96834356 0.20705996
0.008684825 -0.06227152 0.1834189 0.7779479 -0.60440934 0.17171623
0.23962927 -0.027870795 -0.076617055 0.008616395 -0.9915436 -0.129488
-0.051178526 -0.1082038 -0.042056397 -0.9969427 -0.055897 0.054596364
-9.759236e-05 0.056932256 0.27314052 0.032247737 -0.2396075 0.9703341
0.046463832 -0.052231096 -0.18904163 0.94332576 0.28052485 -0.1773198
0.07232689 -0.0076059094 -0.10408129 -0.37001938 0.9216346 -0.11694111
-0.025719356 -0.009404811 0.040994503 -0.3936196 0.9162652 0.074308194
0.33454746 -0.017872574 -0.08475079 0.03731832 0.42525223 -0.90430516
0.04544061 -0.088648334 -0.17818451 0.8965672 -0.4337032 -0.08982636
-0.046288084 -0.053575106 -0.17241205 -0.9852872 0.13478993 -0.10507465
0.046825234 -0.035395462 -0.11539446 0.96345913 0.259109 0.067890234
-0.20834342 -0.0031053177 -0.049073633 0.006275215 0.9993985 -0.034105755
-0.0686309 -0.0075638634 -0.09523565 0.27832887 0.95432866 -0.108580805
-0.21914025 -0.027929528 0.0006975671 -0.00028010245 -0.9922592 0.124183804
0.27303776 -0.016334875 -0.08767784 0.058028705 0.8079391 -0.5864018
0.024901949 -0.0925517 0.01948055 0.779142 -0.5658846 0.26965228
-0.011509179 -0.11732166 -0.055919256 -0.19742909 -0.98031694 0.00068808865
-0.14936624 -0.0010038473 -0.069463626 -0.10803531 0.993155 -0.044402223
-0.036169607 -0.106298774 -0.17121294 -0.86281574 -0.501318 -0.065032266
-0.04328842 -0.010788183 0.009335851 -0.21634203 0.9022937 0.37291053
-0.28891218 -0.025066448 -0.083919175 0.009867924 -0.96451044 -0.26386023
0.050753996 -0.058466528 -0.14762104 0.99710405 0.07436897 -0.015899258
-0.3874365 -0.008977707 -0.019631978 -0.1232246 0.9576813 0.2601197
-0.3377375 -0.0055312514 -0.06690166 -0.025792772 0.9867806 -0.1599965
-0.022035256 -0.005970821 -0.04800525 -0.095844544 0.9953677 -0.0075484887
-0.017995674 -0.0050552124 -0.071788594 -0.20550744 0.97822016 -0.029188683
-0.030412419 0.1188902 0.27005884 -0.39226145 0.65541035 -0.6454209
-0.08406206 -0.029680492 0.009175412 0.08435024 -0.9924556 0.08897664
-0.3906255 -0.0354406 -0.028367538 -0.37581533 -0.9071615 0.1892642
-0.030587463 -0.04946144 0.08320564 -0.9971755 -0.059303153 0.046088327
0.03788929 -0.106309906 -0.15149705 0.90765744 -0.41330436 -0.07305745
-0.12831207 -0.00854352 0.032044064 -0.23305346 0.92227846 0.30836433
-0.00826203 -0.0884962 0.06379182 -0.3050381 -0.9150545 0.26386932
-0.003828179 0.09575515 0.19873874 -0.8433086 0.00809389 -0.53736866
0.12027759 -0.030858353 -0.09222115 0.101244114 -0.9647596 -0.24287546
-0.013926728 -0.10109788 -0.27281356 -0.69930345 -0.5296714 -0.48002383
0.010490758 0.011775526 0.23776816 0.94973266 -0.3101094 -0.04289564
-0.3375042 -0.027850298 -0.08330962 0.066956036 -0.98574203 -0.15436815
0.36326066 -0.01444516 -0.0029876637 -0.041124016 0.93127275 0.3619943
0.027922187 -0.06624092 0.07500695 0.9488901 -0.2977299 0.10471151
-0.030123925 -0.084157184 -0.2459067 -0.8994039 -0.19659364 -0.39041448
0.1296375 -0.026213447 -0.09930804 0.32819104 -0.8454864 -0.4212402
0.18454099 -0.003609873 -0.028152373 0.031434495 0.9930542 0.113380864
0.077602565 -0.022658005 -0.12190493 -0.16275266 -0.7635151 -0.6249449
0.020380259 -0.045920014 0.15024185 0.9465897 -0.31356072 0.07515115
0.22103463 -0.0077846744 -0.0062066354 -0.0061989077 0.9812841 0.1924656
0.02067636 -0.075908646 0.08178417 0.6153852 -0.76401836 0.19384784
-0.040739454 -0.016365867 -0.105739705 -0.5296836 0.8394091 -0.12176914
-0.05942241 0.031635135 0.20120098 0.07405654 0.7898079 -0.60886705
0.031160146 -0.08773766 0.015020058 0.8041218 -0.5305147 0.26822054
-0.06724416 -0.02739037 -0.039154716 0.029438823 -0.9978292 -0.058908097
0.06310518 0.02658498 0.20033376 0.026040526 -0.8296509 -0.5576749
0.37909618 -0.0110186525 -0.011698371 0.014852442 0.9368331 0.34946123
-0.17716867 -0.025624897 0.015405392 -0.016071543 -0.98720056 0.15867198
0.021832561 -0.0161738 -0.16055964 0.6106946 0.7896875 -0.058699995
0.32455552 -0.03109532 -0.07464195 0.01901243 -0.976488 -0.21473171
-0.05083955 -0.005962812 -0.013757305 0.2529876 0.96491545 0.0702529
-0.18602565 -0.020934302 0.020685596 -0.15897506 0.11877516 0.98011196
-0.08419685 -0.0037104017 0.01776993 0.30540076 0.8775702 0.3695956
-0.042432357 -0.017184747 0.029837681 -0.67402107 0.6401133 0.36871472
-0.19806129 -0.0060599423 -0.07696693 -0.0237246 0.95225406 -0.30438352
0.2182434 -0.01776641 0.01630561 0.024583694 0.46357659 0.8857158
-0.021531373 -0.02055629 0.151768 -0.88676393 0.45324486 0.090657964
0.37140986 -0.005407413 -0.035820976 0.018729165 0.9894676 0.14353743
-0.36781514 -0.022614246 0.01475172 -0.061989017 0.119835354 0.99085665
-0.1389524 0.019083174 0.21422417 -0.4951393 -0.79222286 -0.3566792
0.3286602 -0.033517208 -0.062690035 -0.0062539764 -0.99239856 -0.122906536
-0.042627506 -0.049174562 -0.005915965 -0.999751 -0.022180753 0.0024560532
-0.049475256 -0.098237984 -0.043777656 -0.94938654 0.3135967 -0.017953718
0.39784005 -0.01234509 -0.0132146515 0.5328523 0.7620539 0.36788893
-0.004516836 0.08663651 0.19838648 -0.95475924 -0.026558321 -0.29619157
-0.01650252 0.04377812 0.21328442 -0.9797895 0.152524 -0.12941815
-0.015761344 0.10179579 0.24599011 -0.8131813 -0.5614507 0.15332766
0.010446647 0.08668245 0.2363711 0.97237515 -0.15168138 -0.17742404
-0.08970671 0.001259856 -0.07575197 0.14632046 0.9891951 0.009131821
-0.11361701 0.019168641 0.22368933 0.0006076279 -0.9955375 0.09436461
0.026293926 -0.11425642 -0.18572694 0.6743457 -0.7294351 -0.114814565
0.05185616 -0.02161058 -0.088082485 -0.16866831 -0.98160356 -0.089473665
0.13128313 -0.004458802 -0.10419096 0.438932 0.851551 -0.2867046
0.11790954 0.0012638769 -0.03785063 0.040356554 0.9946623 0.09496463
-0.009168342 -0.002171727 0.2326611 -0.9890749 0.14601593 0.020253578
0.016708076 -0.01628868 -0.18321386 0.42956328 0.8831402 -0.1885176
0.068250366 -0.009435808 0.01572202 -0.16245809 0.94769377 0.27474332
0.33575672 -0.028561724 -0.0022128522 -0.020158976 -0.9467135 0.3214454
-0.27223757 -0.016263163 0.015512876 -0.05348368 0.76107085 0.64646006
0.028615708 -0.0899251 -0.2549432 0.96638066 -0.22429834 -0.12569319
0.31455934 -0.0046039103 -0.035052773 0.052660793 0.9880268 0.14501694
-0.015727505 0.106781356 0.22481614 -0.63142216 -0.71776175 -0.29346895
0.019107003 -0.11866714 -0.20617181 0.7613004 -0.6476016 -0.032154534
0.043524276 -0.08155011 -0.03328889 0.95006883 0.20732017 0.23321162
0.18633655 -0.003251015 -0.03762068 0.031021284 0.9995137 -0.0031799104
-0.020579921 -0.117917344 -0.13322018 -0.48395362 -0.86981434 0.09597874
-0.012981708 -0.12155412 -0.19612518 -0.2788898 -0.95923805 0.045637578
0.027511444 -0.008310216 0.0047955625 0.18933697 0.97877246 0.0784604
0.10428663 0.0010119604 -0.02066438 0.10796233 0.99040025 0.08632151
0.17618385 -0.0036156392 -0.026283376 0.019945938 0.99367315 0.11052521
-0.0143723395 -0.026117517 -0.21584052 -0.41915497 0.7910028 -0.44567218
-0.16178529 -0.029961571 -0.05826631 -0.08350932 -0.9941629 0.06830926
-0.05497142 -0.028824743 -0.008393555 0.061627395 -0.997977 0.015616233
-0.05002442 -0.006728608 -0.008143446 0.24957955 0.96333385 0.09847802
-0.3774269 -0.032906927 -0.0061414535 0.017330255 -0.99366194 0.11106584
0.010680646 0.0041740513 0.16713786 0.9283778 0.32687864 -0.17681903
-0.0139034325 -0.00943737 0.19831671 -0.95297563 0.26119086 0.15367746
-0.39974135 -0.02818656 -0.049039282 -0.88849413 -0.4561089 -0.050426286
-0.2110098 -0.0075631416 -0.003861933 -0.00643879 0.9928765 0.11897369
-0.13558735 0.020634677 0.20779409 -0.3613568 -0.7681156 -0.5286016
0.066762365 0.034203887 0.23986585 -0.11244082 0.97731054 0.17950267
