ply
format ascii 1.0
element vertex 684
property float x
property float y
property float z
property float nx
property float ny
property float nz
end_header
0.047657672 0.18270203 0.0021024423 -0.002532947 0.99999535 -0.0016937177
0.20127638 0.16406438 0.17400636 0.008451896 -0.9998258 0.016644439
-0.23420385 0.07203933 -0.19158182 0.014894463 -0.125392 -0.99199545
-0.3378984 -0.00047955685 0.18706107 -0.99837583 -0.029640198 0.048652507
-0.13202259 0.18071775 -0.09730745 -0.012556305 0.99986637 0.01046613
0.3402804 -0.17946057 0.21128115 0.470803 -0.19255404 0.86096895
0.21604215 0.18447252 0.1916751 0.0038930855 0.9966299 -0.08193728
-0.10111188 0.1836522 -0.18481503 -0.0008239385 0.9999562 0.009322711
-0.13175364 0.18343855 -0.17623703 -0.002196808 0.99979174 0.020289963
0.15683787 0.1833325 -0.14600185 -0.0057824044 0.999883 0.014158499
0.10010716 0.09004701 0.07150314 0.004591687 0.99973696 -0.022470284
0.1276948 0.06764895 0.0024322881 0.021216108 -0.9995822 0.019629857
0.38879555 0.16418532 0.21196207 -0.0067137033 -0.99997556 -0.0019530773
-0.2714195 0.08547713 -0.17818068 0.36638913 0.90980893 -0.1949531
-0.35801724 0.18403605 -0.056252897 0.043886233 0.99900246 -0.00824677
0.059224315 0.09111857 0.1054237 0.006605903 0.9998256 -0.017468266
0.25702462 0.088899836 0.01729986 0.046138775 0.9989266 -0.0041154507
0.34272748 0.06300804 -0.0022667358 0.105642565 -0.994026 -0.027423082
0.32686058 0.12832835 -0.14742394 -0.5129581 0.1498466 0.8452336
-0.010297833 0.18324342 0.1204912 -0.022514932 0.9996873 -0.010876115
-0.34544843 0.075652815 0.042169534 -0.9631739 0.2608651 -0.065156564
-0.06548396 0.16409542 -0.026148634 0.0015410125 -0.9999188 -0.012648509
0.30884925 0.16320428 -0.13268472 0.06127929 -0.99652594 0.056398235
-0.018007284 0.163398 -0.16509518 0.004622002 -0.99969476 0.024269324
-0.10416109 0.16384782 0.0067449305 0.002563464 -0.99999505 -0.0018157869
-0.07017258 0.08921598 0.04761087 -0.0073652565 0.99935704 -0.0350879
0.21692786 0.16420548 0.20279707 0.0011745658 -0.99969274 0.024757406
0.17134398 0.06776461 0.01927067 -0.0111534465 -0.9999347 0.00248702
0.103165 0.18293187 -0.020951357 -0.0052332804 0.99990743 -0.012556821
0.106526695 0.16440706 -0.119750746 0.0025176276 -0.99997115 0.007171424
0.11413592 0.16469021 -0.057054114 -0.00065612 -0.9999879 0.004867495
-0.079934284 0.065059975 -0.16762124 0.0031861286 -0.9943149 0.10643187
0.1811678 0.06630542 -0.1307515 -0.0063780434 -0.99997956 0.00044249583
-0.2385711 0.08917511 0.0065745087 0.002441295 0.9999544 0.009231146
0.406456 0.1816461 -0.16695397 0.8880944 0.45965824 0.0016125982
0.3455004 0.1417943 0.1943172 0.9506381 0.11421699 0.28851613
0.29630318 -0.002179289 -0.19905254 0.018238727 0.0036462196 -0.999827
-0.33247793 -0.12966229 0.20386513 -0.7835484 0.05688665 0.61872107
-0.33828226 0.117509365 0.19134939 -0.95551485 0.011763863 0.29470816
0.34333524 0.16537109 -0.110917285 0.081810765 -0.99657065 0.012408473
0.09893477 0.1829239 -0.13583815 -0.01173317 0.9999285 0.0023039123
0.25246647 0.18525684 -0.21307391 0.004114018 0.9733439 0.22931354
-0.33529472 -0.13331228 0.19902688 -0.9620493 0.043356515 0.26940933
-0.07892959 0.06546949 -0.1788246 -0.00023886772 -0.9784022 -0.20671016
0.32944185 0.18457818 -0.20026632 -0.02319897 0.9976166 0.064984515
0.34358647 0.16426925 0.14693978 0.103232205 -0.994623 -0.008256148
0.07393306 0.18235375 0.07672679 -0.00913884 0.9998715 -0.013166643
-0.3378063 0.0890616 -0.08152567 -0.6164045 0.78704965 0.024463195
0.1920878 0.16881779 -0.23859254 0.00974375 -0.38359237 -0.9234511
0.18108067 0.0663869 -0.14214906 -0.010466278 -0.99988043 -0.011381696
-0.024285903 0.086031854 -0.1693978 -0.008459652 0.9971434 -0.07505658
-0.30911824 -0.095751286 0.20769455 0.058252465 0.021321164 0.9980742
-0.035220385 0.08896086 0.0005855344 -0.0059657497 0.99992675 0.010527793
-0.027781675 0.18159403 -0.08532222 -0.009612355 0.9999291 0.007033803
0.21224241 0.087844074 -0.116151184 0.0038593109 0.99969876 -0.024238912
-0.10737368 0.08883455 0.031852636 0.0054929056 0.999953 -0.007995229
-0.3301853 0.001696131 -0.15461831 -0.39507806 -0.033507425 0.9180363
0.31629944 0.18501297 -0.2079115 -0.024718687 0.9914099 0.1284343
-0.067396455 0.16369857 0.15249059 0.00439448 -0.9999884 0.001968361
-0.403376 0.1688353 0.20444539 -0.883954 -0.46699736 -0.023212964
0.07779554 0.1833724 0.14186972 -0.0041045365 0.99998105 -0.0045928084
0.18809222 0.085897006 -0.14586514 0.013461426 0.99572015 -0.09143438
0.4077418 0.17508301 -0.18190287 0.99936515 0.033593774 0.011863802
0.13803434 0.16301896 -0.1855458 0.018943027 -0.99634844 -0.08325201
0.20318286 0.091196105 0.18523388 -0.030355968 0.9819391 0.18674622
0.03219893 0.18436435 -0.21165606 -6.0202125e-05 0.9863516 0.16465281
0.17916682 0.18324444 -0.023240253 -0.011992499 0.9999242 -0.0027768891
0.27217633 0.16370447 -0.13713406 -0.14129013 -0.98958963 0.02737619
0.2358285 0.16395131 -0.0047572986 -0.0016326628 -0.9999831 -0.0055846223
-0.11090408 0.18418841 -0.2105764 -0.0017118108 0.9927897 0.11985706
-0.24777518 0.08898934 0.025016563 -0.012648506 0.9999186 0.0017088453
0.25335437 0.06679283 -0.055194914 -0.022882106 -0.99973446 0.0027153431
-0.31465194 0.09337796 0.093651585 0.39922822 0.91664577 -0.01942781
0.3080791 0.08997927 -0.05623217 -0.12190168 0.9925393 -0.0024080467
-0.25746357 0.06560511 0.11399825 0.075860985 -0.997117 -0.0016736278
-0.20715821 0.18614334 0.2102066 0.0067691994 0.99467766 -0.1028129
0.014644646 0.06825003 0.052720293 -0.003143256 -0.99998266 0.004974279
-0.1353926 0.18058954 0.24110408 0.0054494287 0.40176263 0.9157276
0.26380867 0.16406626 -0.070061944 -0.044328354 -0.99900377 -0.005137089
0.09469343 0.16401178 0.07451637 0.0021666759 -0.9999667 -0.0078732725
0.24150626 0.066512465 0.11496548 -0.026616013 -0.99960285 0.009258406
0.22625726 0.16403355 -0.15924253 0.0038602427 -0.99994016 0.010238035
0.07983091 0.09057135 0.08745656 0.0074885646 0.9995327 -0.029633973
0.354636 0.18663177 0.17318505 -0.022374911 0.99956524 -0.019202463
-0.30558 0.16274805 0.030019393 0.0065281442 -0.9995992 0.02754633
-0.20743765 0.06732649 0.17438889 0.020493018 -0.99927855 -0.031974595
0.24600102 0.09001067 0.05746095 0.024446726 0.99946386 -0.021777868
0.2791896 0.18377642 -0.09499326 -0.009383723 0.999954 -0.0019835513
-0.24808158 0.07964147 0.20331234 -0.0016442871 0.06660885 0.9977778
0.08632628 0.08968682 0.053846415 0.0024253023 0.9996517 -0.026281735
0.34346387 0.15526131 0.19284919 0.99835974 0.05042375 0.027116094
0.27916223 -0.14364274 -0.16543062 -0.96377856 0.007448493 0.26659992
0.3468897 0.06423421 -0.02488359 0.06370422 -0.9975914 -0.027445333
0.3239412 -0.18802775 -0.1676556 0.023435788 -0.9785842 0.2045088
0.2788572 -0.16074616 -0.17048986 -0.9987855 0.011597835 0.04788489
-0.014633579 0.06808586 -0.074376784 -0.008025847 -0.9999656 -0.0021056405
0.22315286 0.065954976 -0.124775395 -0.005278016 -0.99971116 0.023445984
-0.33125648 0.049527988 0.16237426 -0.15870495 -0.2402885 -0.95763993
-0.39373553 0.18736684 0.14190331 0.005996459 0.9999592 -0.0067593674
0.31069624 -0.11351025 0.17172109 -0.011793624 -0.010084845 -0.9998796
0.004190499 0.09623262 0.16665888 0.29120135 0.9221208 -0.25474483
-0.10016988 0.066795014 -0.13082357 -0.000106810716 -0.99999243 0.0038909616
-0.30642593 -0.16332671 -0.1598631 -0.0064664315 0.031249335 0.99949074
-0.21425742 0.06726655 0.15717585 0.016562441 -0.99948084 0.027634572
-0.33662155 -0.09193861 0.1771424 -0.94643325 -0.035200976 -0.32097512
-0.35157764 0.16395752 0.06394278 -0.0013427635 -0.99999267 0.0035857891
-0.18898731 0.18352999 0.18334952 0.0015559844 0.99973524 -0.022958398
-0.065166324 0.089049004 0.040809628 -0.009227675 0.99957836 -0.027530503
0.010453672 0.09261748 0.13685952 0.002085232 0.9975019 -0.07060869
-0.08421095 0.16397259 -0.013628317 0.0010223174 -0.999979 -0.0063932985
0.34904942 0.08831804 0.13170652 0.83632714 0.5481378 0.010094219
-0.26844913 0.18743984 0.22708416 0.013700397 0.9998544 -0.01017613
0.28669024 0.16281185 0.024255047 -0.018182447 -0.99966854 0.018228209
-0.27325633 -0.15163776 -0.1720656 0.99963266 0.026021933 0.0075808326
0.32576174 0.16439691 -0.126344 0.036046784 -0.9993071 0.009270916
-0.21013038 0.18365635 0.23929699 -0.002659579 0.76783335 0.64064413
-0.38982928 0.16383602 0.04953446 -0.014921422 -0.9998878 0.0012968516
0.21739942 0.082368314 -0.18785694 0.019711234 0.91942734 -0.3927656
0.30365852 -0.019009922 -0.19884884 -0.014369909 -0.018221715 -0.9997307
-0.2722455 -0.027121387 0.1941628 0.99994576 0.0025251927 -0.010108399
-0.3984709 0.18683468 0.0797176 -0.26929837 0.9630437 0.005025649
0.33893827 0.10103752 0.113577716 0.56110364 0.82682765 -0.038972024
-0.34102055 0.18684286 -0.23186621 0.026217327 0.9972018 -0.07000924
0.3079692 0.18637286 0.22034867 0.010675876 0.99950606 0.029556926
-0.23213664 0.089122064 0.012628248 -0.0027007908 0.99999446 0.0019531142
-0.15378943 0.08986277 0.0696926 0.0051838877 0.9992096 -0.039412793
-0.06644086 0.18283279 0.11702505 -0.0043938463 0.99984413 -0.017102435
-0.04643609 0.080017425 0.20143303 0.014218817 -0.011472695 0.9998331
0.19839874 0.06727757 0.09759427 -0.020211289 -0.99967325 0.0156504
0.15638298 0.087810986 -0.052210614 -0.008587758 0.99965775 -0.024710778
-0.2843185 -0.0855063 0.20747212 0.013011068 0.023444327 0.99964046
0.13454519 0.1859392 -0.21668108 -0.0013289228 0.96050775 0.27825013
-0.3684999 0.18626955 0.13954572 0.019221054 0.99973893 -0.012356392
-0.24293956 0.1847244 0.19490692 0.012519914 0.99575853 -0.091149226
0.33889422 0.15335293 0.10318097 0.9261912 0.37055564 -0.06970177
0.32259053 -0.034524534 -0.1989492 -0.020251492 -0.006254698 -0.99977535
0.17821436 0.087947346 -0.11628021 0.02544017 0.99954855 0.015983991
0.27742836 0.18408954 -0.1983562 -0.005949981 0.999841 0.01681251
0.26547801 0.16399732 0.11897382 -0.014601057 -0.99989015 0.002547938
-0.004919173 0.18287386 -0.14178477 -0.031874403 0.99948364 -0.004071993
0.36883825 0.16689646 -0.09200791 -0.0315535 -0.99946356 0.008769097
-0.33903116 0.1174476 0.14386404 -0.997461 -0.028042937 -0.06546142
-0.37616402 0.18531208 -0.09356984 0.16505241 0.98622125 -0.011196115
-0.29212025 0.12524411 -0.14607766 -0.50063044 0.6043281 0.6198038
0.1926882 0.183338 -0.09624847 -0.011839764 0.99991083 0.0061792587
0.2978865 0.09006541 -0.002291693 -0.022423366 0.99968547 -0.011226937
0.1796917 0.18308792 0.008888379 -0.009428581 0.9998568 0.014051332
-0.093675345 0.18456924 -0.21318994 -0.003804201 0.9893338 0.14561637
-0.29984012 0.060750253 -0.14494292 -0.16490798 -0.9532929 0.25305733
-0.28199884 0.09230958 0.1120856 0.16886027 0.98385733 -0.059254225
0.23350525 0.16443151 0.21695647 0.008421085 -0.9997902 -0.018672839
-0.32483175 -0.08610968 0.20708756 -0.20466939 -0.019442547 0.97863805
0.29942304 0.1839216 -0.12716684 0.005309982 0.99998564 -0.0007018942
0.25352737 0.16392124 0.045822416 -0.001068109 -0.9999941 0.0032653615
-0.20332691 0.18702073 0.2277591 0.01070137 0.99903846 -0.042515844
-0.09243972 0.18192855 0.090302154 -0.0045912387 0.9996392 -0.026464447
-0.002367611 0.076381356 0.20362309 0.076089025 -0.019242827 0.9969153
-0.20691155 0.06742833 0.047278725 0.021097243 -0.99973166 -0.009564693
-0.1966329 0.18170469 0.09408166 0.011385564 0.9989042 -0.045395404
0.34372357 0.10120286 -0.17018215 0.9771787 0.20291786 -0.06281821
-0.09287717 0.16408475 0.20828335 0.00048806783 -0.9995629 0.029558608
-0.17701077 0.18066154 -0.12586223 -0.005507195 0.9997771 0.020381197
-0.22043702 0.08936617 0.056338944 -0.006514498 0.9998458 -0.01630913
0.17828974 0.16398744 -0.19817631 0.0024108223 -0.99997246 -0.0070188497
-0.032259062 0.16402656 0.043600142 0.0014800983 -0.99999714 -0.0018768257
-0.13220762 0.16356526 0.11796645 -0.0026550186 -0.999996 -0.00094604114
-0.32719412 0.025925834 -0.19503011 -0.2625302 0.053907003 -0.9634168
0.15497021 0.17608194 0.24218822 -0.0051916162 0.0666232 0.9977647
-0.3205111 0.06287306 -0.07284404 0.039516952 -0.9991446 0.012181344
0.23494567 0.08646094 -0.13788809 -0.00038071448 0.9980202 -0.06289403
0.3689504 0.18682022 0.12627335 -0.060828995 0.9981194 0.0075845867
0.1450499 0.0864564 -0.15509912 0.017773032 0.9998055 -0.00854326
0.13366358 0.16459395 -0.06273845 -0.0063017383 -0.9999775 0.002288767
-0.2832696 -0.14986542 0.17236774 0.018410176 -0.073412485 -0.9971317
-0.35277575 0.18676755 0.19147083 0.030259172 0.99701613 -0.07101549
0.23406547 0.09066354 0.13878627 0.00649998 0.99995935 -0.0062558493
0.34252465 -0.11105116 -0.1602048 0.745239 -0.012563303 0.666679
-0.33898404 0.13803415 0.1557107 -0.9967019 -0.07415647 0.03295674
0.34096372 -0.096560314 0.2063558 0.87814635 -0.0021573114 0.47838718
-0.09160023 0.090781085 0.10088412 0.00027454333 0.9995817 -0.028918562
-0.3385982 -0.04505212 -0.17582247 -0.99673367 0.050007023 -0.06341371
-0.33853006 0.06305264 -0.06006703 -0.3109562 -0.9504163 0.003872088
0.36713347 0.16649622 0.029950967 0.00826973 -0.9999355 -0.0077814804
-0.07885627 0.08208147 0.20134427 0.015037949 0.3060643 0.9518921
0.34305692 0.06980358 -0.20119977 0.09892911 0.3586953 -0.92819756
0.3086799 0.0836231 0.20395675 -0.019021438 0.12702145 0.9917176
-0.31136474 -0.15358558 -0.15974514 0.000457085 -0.054431204 0.9985174
0.11188248 0.067485794 -0.012216103 0.0006866121 -0.9999513 0.009841439
0.3555564 0.18647124 0.16540065 -0.024343422 0.9996056 -0.014002044
-0.16389464 0.18042506 -0.0820356 -0.005462561 0.9999843 -0.0012512011
-0.09091331 0.067578144 -0.07080874 0.008285216 -0.999963 0.002303992
0.055168446 0.16437726 -0.11893862 -0.0014952933 -0.9999545 0.009414244
0.084485255 0.06742121 -0.046610933 -0.008879982 -0.9999287 0.007979778
0.16533935 0.16403073 0.085330136 -6.1034996e-05 -0.9999974 -0.0022888123
0.26640353 0.16388276 -0.057055794 -0.04566648 -0.9989314 -0.00711824
0.3228301 0.17130166 -0.2390963 -0.017551227 -0.21698141 -0.97601795
0.014549023 0.1658985 -0.23663417 0.0195988 -0.7591176 -0.6506584
-0.33618692 0.15921313 0.18392727 -0.7106666 0.7028683 0.030482236
0.35578668 0.18676539 0.19166405 -0.03298679 0.9994555 0.0007320231
-0.17762528 0.068331674 0.02521262 0.019825254 -0.9997459 0.010724204
-0.13148214 0.066214845 -0.1542796 6.088406e-05 -0.99752444 0.07032109
0.26896492 0.06484821 0.1661096 -0.30200762 -0.95316225 0.016525257
-0.16049601 0.06672387 -0.11248447 0.0045312834 -0.9998726 0.015302616
-0.057910327 0.18322198 -0.16055556 0.00074741855 0.99964947 0.02646472
0.24843797 0.16445807 0.23686469 0.011364936 -0.9488057 0.31565568
-0.3456072 0.06618611 -0.11982754 -0.8676537 -0.49714866 0.004490845
0.3501072 0.18561421 -0.19372259 -0.04279294 0.9962622 0.07503586
0.30190063 0.08641415 -0.1421864 0.17350873 0.9846786 -0.017398953
-0.26700842 0.1632819 0.06370285 0.004272068 -0.999908 0.012877233
-0.33327806 -0.092073895 -0.19343221 -0.49668145 -0.037598215 -0.8671182
-0.35908145 0.18596362 0.14698867 0.07138702 0.99731827 -0.016130941
-0.21930708 0.088198915 -0.08227778 0.02735698 0.9993685 0.02267549
0.1260142 0.14667784 0.1950224 0.07276934 0.31966323 0.9447328
0.18364817 0.18418023 0.15130447 -0.005248824 0.99996203 -0.006957744
-0.29231566 0.16353612 0.11975952 -0.016537722 -0.9998304 -0.008101043
-0.113044985 0.1830528 0.1356904 0.00059494964 0.9997595 -0.021921607
0.3103424 0.093147784 0.12350884 -0.12968437 0.9913677 0.019287014
-0.06360153 0.08761237 -0.059267916 -0.0072171446 0.99996364 -0.004546954
0.08491451 0.08805676 -0.070676275 0.0015563009 0.9999386 -0.010970396
0.27565673 0.12369325 -0.19212672 -0.47646803 -0.23343122 -0.84763676
0.31872827 0.09306204 -0.01334191 -0.20649724 0.9781715 -0.02322441
0.053486 0.06768556 -0.05709401 -0.009246233 -0.99993587 -0.006545601
0.28044242 -0.06092936 -0.16834413 -0.998424 -0.002178568 -0.056079082
-0.40429056 0.18352924 -0.007966094 -0.7932061 0.60894203 0.0036981038
0.2048055 0.16429956 -0.09358277 -0.0009918194 -0.9999981 0.0016784637
-0.34750247 0.18366233 -0.018098302 0.044176534 0.99901766 -0.0034755864
-0.11904024 0.16402051 0.22623353 -0.00022887689 -0.99997836 -0.0065763956
-0.21700275 0.06711604 0.17418449 0.026194874 -0.9992475 -0.028603949
-0.3914445 0.16404034 -0.09414993 -0.0064385664 -0.9999002 0.012571988
-0.37952077 0.16381991 0.16545556 0.018899478 -0.99967414 -0.017160544
-0.045779828 0.08748945 -0.07157186 -0.0025629709 0.99980277 -0.019695211
0.08966473 0.089392066 0.041400913 0.002456039 0.9997452 -0.022439959
0.13634375 0.16407792 0.07318852 -0.0021514744 -0.999993 -0.0030517366
0.20966403 0.081674054 -0.18961066 0.01135942 0.80481184 -0.5934214
0.077167 0.16377921 0.119625 0.000808687 -0.99996436 -0.008407293
0.3454181 0.02688182 -0.18688954 0.9944618 0.074232586 -0.07439951
0.17888664 0.087695785 -0.06656894 -0.01199146 0.9998376 -0.013456066
0.40396178 0.16878133 -0.090052456 0.6073238 -0.793888 0.029993692
-0.16814664 0.0891136 0.03621507 0.005233029 0.9998594 -0.015927937
-0.27286208 0.08998005 -0.12769574 0.41274026 0.9093134 0.052863833
-0.043270495 0.18208596 0.076823674 -0.012524961 0.9998 -0.015591364
0.19731465 0.18644965 0.20739207 -0.0019951768 0.990575 -0.1369568
-0.08771093 0.16418242 -0.22589864 0.001693713 -0.99999255 -0.0034637193
0.27792397 0.16503754 0.2384227 -0.0026630799 -0.93832046 0.34575653
0.05405075 0.09177709 0.12987156 0.013297831 0.99917847 -0.038283005
0.33172226 -0.03634543 0.20946594 0.23495507 0.03530565 0.9713648
-0.3581871 0.16419998 0.17094162 0.01077155 -0.9998928 0.009917149
-0.15548442 0.088864975 0.016721291 0.0062254146 0.99997246 -0.004043468
0.08685559 0.06722102 -0.08766334 -0.01287601 -0.99981296 0.014432115
-0.23275109 0.1805208 -0.056358524 0.010893825 0.9999128 -0.0074608973
-0.27552104 0.007205637 -0.16623488 0.9980726 -0.05525332 -0.02825163
-0.28456134 0.091512755 0.07093432 0.08825815 0.99605405 -0.009316728
0.40301287 0.18631436 -0.22462107 0.29756072 0.9472914 -0.11872942
-0.26703608 0.088820614 0.025787514 0.016004374 0.99986905 0.0023800593
-0.27633938 -0.11355405 -0.19512346 0.40765142 -0.03139422 -0.9125978
0.10876947 0.08791055 -0.08574374 -0.0023192726 0.9999727 -0.0070188516
-0.28945798 -0.015204659 0.20442958 -0.04013159 0.05374223 0.9977481
-0.31735393 0.106754 -0.14967695 -0.4015184 0.7782978 0.48273757
-0.27440214 0.12278575 -0.18573447 0.9733561 -0.056275122 -0.22228599
0.24567845 0.08864814 -0.072336376 -0.0074913874 0.9999095 -0.011168423
0.21003293 0.06729895 -0.02558474 -0.0068658683 -0.9999145 0.011122706
-0.32447746 0.15722455 0.16489674 0.28248638 0.89681864 -0.34046704
-0.30291802 -0.19008672 0.20019384 -0.017250009 -0.9973503 0.070674054
0.08323165 0.18231641 0.051549986 -0.009290271 0.9997492 0.02038063
0.13155581 0.08912665 -0.007919368 0.0012816613 0.99994 -0.010878864
0.3362479 -0.10603386 0.1715676 0.13016684 -0.040496685 -0.9906647
0.044305854 0.088567786 -0.04788672 -0.0005645548 0.99996394 -0.008468322
0.32856387 0.13143349 0.11206804 -0.99963623 0.015146466 0.02231549
-0.40355128 0.17165364 -0.006049155 -0.9356038 -0.3527341 0.0149735445
0.32910523 0.16441712 -0.07939652 0.025684578 -0.9995633 -0.014611536
0.28349385 0.089959584 -0.002345747 0.012968636 0.99989706 -0.0061334018
-0.26429808 0.18125044 -0.08483612 0.027119972 0.9996257 0.0036149793
-0.20323026 0.18043588 -0.047039833 0.0011443553 0.99995285 -0.0096431
0.06545479 0.083460085 0.20000628 0.001602928 0.23214257 0.97268045
-0.30534542 0.17798631 0.24223995 0.009218301 0.2246143 0.97440416
-0.17280951 0.16358168 0.039448887 0.019207006 -0.99980175 0.0052479827
-0.048597846 0.16408792 -0.21367468 0.0014797782 -0.99978083 -0.020884704
-0.15139289 0.18132275 0.03295661 -0.005157344 0.99997544 0.004745367
-0.3375786 0.08358689 -0.1554579 -0.9889638 0.13841154 0.052846543
-0.19069849 0.1836603 -0.23616126 -0.0059606326 0.8898315 -0.45625034
-0.28912458 0.060331576 0.10113471 0.027719354 -0.99923855 -0.027460152
0.12221002 0.18276843 -0.10040414 -0.0023344362 0.9999321 0.011412799
-0.13287097 0.16382466 0.05666394 0.0011901808 -0.999996 -0.0025634663
0.35743445 0.16584328 -0.016719282 0.12362416 -0.9923275 -0.0017715809
-0.15385209 0.16361548 0.15658782 -0.0047756764 -0.99993205 0.010634653
0.31658277 0.06400057 -0.013484344 -0.046531767 -0.99885553 0.011065203
0.12972794 0.1642277 0.013640253 -0.0059812963 -0.9999751 -0.0037535685
0.34674147 -0.17802183 0.19124301 0.99808806 0.041424554 -0.0458716
0.10943189 0.09102556 0.121426955 0.0039502704 0.9995557 -0.029543143
-0.29898122 0.0017892262 0.16507426 0.004578271 -0.113607824 -0.99351513
-0.20930564 0.06703376 0.14735064 0.016573971 -0.9992565 0.034809913
0.40105203 0.1671281 0.1387923 0.75364786 -0.6572594 0.0050044623
0.17256916 0.1830361 -0.061858382 -0.0093836915 0.9999505 0.0032957355
-0.33888045 0.13439697 0.1602017 -0.9920574 -0.043142144 -0.11815649
-0.03339978 0.18203433 0.067023754 -0.005782683 0.99993116 -0.010207427
0.16668089 0.06749463 -0.01604439 -0.005660608 -0.99992883 0.0104973
-0.048731666 0.06758166 0.1078303 0.0069390037 -0.9994605 -0.032102425
-0.07466042 0.068178594 0.03430528 -0.0035549535 -0.99990314 -0.013456949
-0.30309147 -0.096768044 -0.19726576 -0.03934705 -0.013082029 -0.99913996
-0.090129256 0.18160023 -0.11992293 -0.01714179 0.99947006 0.027672593
-0.2588576 0.06647721 -0.03168864 0.050898157 -0.9987011 0.00236204
-0.102915764 0.16356297 0.15215781 0.0045470693 -0.99998903 0.001129138
-0.038795263 0.09099244 0.098350026 -0.010220798 0.99974656 -0.020060223
-0.21591422 0.16316348 -0.020303557 0.007979652 -0.9999129 -0.01051239
-0.34452254 0.07242812 -0.01030106 -0.9645744 0.26380968 -0.0007947848
-0.27274916 -0.17552267 0.18177976 0.99959946 0.018013412 -0.021826582
-0.2167451 0.06716597 -0.0073828474 0.013776869 -0.99986804 0.008604822
0.34246024 0.16481127 -0.008405371 0.056397617 -0.9983993 -0.004265622
-0.29310596 0.18775572 0.22431113 0.021112287 0.9997217 0.0105256345
-0.29550913 0.16358821 0.10422777 -0.0106499875 -0.99993926 0.0028227046
0.25744468 0.08675333 -0.12907512 0.024661895 0.9976802 -0.0634511
0.24888289 0.06629203 0.11557404 -0.04021867 -0.9991549 0.008476717
-0.3453635 0.07430372 0.034856 -0.9634664 0.26300707 -0.050594028
0.32563356 0.1841227 0.13374886 -0.039381873 0.99919873 -0.0071353912
-0.16054349 0.088475056 -0.03771333 -0.0033855387 0.9994354 -0.033428382
0.17489395 0.06768717 0.1143651 -0.010970212 -0.9999218 -0.005996235
-0.029589955 0.08879743 0.017822273 -0.007583224 0.999948 -0.0068203243
-0.33616638 0.011051679 -0.16704206 -0.9955077 0.039980717 -0.08582487
-0.103044726 0.08845992 -0.03441316 0.009824399 0.99976987 -0.019069098
0.27427307 0.06573521 -0.04822718 -0.058387034 -0.99829185 0.002102116
-0.31810287 0.16155249 0.14357749 0.10238926 -0.98030424 -0.1688787
0.15902923 0.0680125 0.149485 -0.010014829 -0.998983 0.043961596
0.11424064 0.16405396 0.23580119 -0.0009155187 -0.9999906 0.0042419033
-0.08311282 0.18202876 0.02986484 -0.008236242 0.9995748 0.027972719
-0.1531595 0.16390973 -0.12261659 0.0018310249 -0.9999837 0.0054015233
0.29696766 0.06252517 0.119051665 0.038116165 -0.99919236 -0.012715553
0.08946664 0.06709719 -0.09444588 -0.005477469 -0.99992037 0.011366893
-0.27237004 0.16408256 0.22667448 0.0009917963 -0.9999748 -0.0070341243
-0.27520323 0.16284993 0.05702101 0.066874266 -0.997649 0.0149793485
-0.14616427 0.1811854 0.004665441 -0.0090173315 0.99993205 -0.007384752
0.062228005 0.18268684 0.027946087 -0.0051111076 0.9998852 0.0142653305
0.34617075 -0.16592358 -0.17520177 0.98818624 0.099985704 0.11614989
-0.27376387 0.1873802 0.21774937 0.017190726 0.99965525 -0.019844841
-0.15420419 0.18103144 0.05534313 -0.003341556 0.9999645 0.0077359313
0.077604115 0.164019 0.067163974 0.0016021609 -0.9999925 -0.0035247537
0.16112284 0.18377672 0.12964658 -0.005980411 0.99982715 -0.017605599
-0.31717467 0.14438121 -0.16633642 -0.7634645 -0.6362505 0.11093803
0.065967076 0.16397358 0.20545857 -0.00013722575 -0.99924743 0.038789146
-0.3003866 0.187602 0.21152751 -0.0053340257 0.99877346 -0.04922544
-0.3420653 0.16417335 0.21935375 0.011929684 -0.99977463 -0.017558908
0.10314713 0.088704966 -0.11109098 -0.000548722 0.99891794 0.04650419
0.34320787 0.06260887 0.060965687 0.14447929 -0.9895072 0.0011324012
-0.30404496 0.16141042 -0.02042427 -0.017634239 -0.99972105 0.015712168
0.3016342 -0.14513668 -0.19816867 0.04641286 0.0018824263 -0.99892056
-0.2205478 0.18061996 -0.11232839 0.007872611 0.9998827 0.013136277
-0.31508768 0.183907 -0.18203296 -0.0006863687 0.99959683 0.028385159
0.27787054 0.08966711 -0.031231655 -0.059947345 0.99814767 -0.010371987
0.40419626 0.17172499 0.11290612 0.9028468 -0.42994627 0.0037197804
-0.040595468 0.08452764 0.20001861 0.0039430303 0.31210825 0.9500384
-0.1764407 0.16236894 -0.18133028 0.007858353 -0.99807173 -0.061572324
-0.24639903 0.07740242 -0.19111826 0.023650302 0.30133045 -0.9532264
0.20404594 0.164317 -0.050257795 -0.0040129134 -0.9999631 -0.0075985966
0.4028722 0.18661095 -0.19442108 0.3696923 0.9290293 -0.015239052
-0.27950218 0.15939844 -0.14849448 0.18719187 -0.97712517 0.100924075
-0.2807317 0.120005846 0.1660335 0.76964515 0.10729771 -0.62939143
-0.326055 -0.1426756 -0.19475098 -0.15898284 -0.08153698 -0.9839086
0.316189 -0.0695051 0.16993266 -0.031325623 -0.081353515 -0.99619293
-0.025276506 0.18348855 0.18332344 -0.019948203 0.9994843 -0.025164017
-0.23164733 0.09043524 0.10030301 -0.0010375428 0.9999472 -0.0102228485
-0.30008203 -0.19009605 0.19118585 -0.020497683 -0.9961707 -0.0849928
0.050814476 0.08787249 -0.079053946 -0.0014387085 0.999828 -0.018491313
-0.23004389 0.18042314 -0.06849914 0.011580627 0.99993145 0.0017088673
-0.032156285 0.18154533 -0.08153211 -0.008987054 0.9999586 -0.0014190086
-0.25987247 0.18247452 -0.14326186 0.038030695 0.99814963 0.047443178
0.023929814 0.1641392 -0.21918757 -0.0024108766 -0.99999493 -0.002059926
0.09652145 0.1831055 0.0085185 -0.0063627814 0.999979 -0.0011901606
-0.042310506 0.0681415 0.051394537 0.005264121 -0.9999694 0.005782904
-0.079735756 0.16377619 0.20214064 0.00053267373 -0.99740875 0.07194139
-0.28907076 -0.026244976 -0.19836491 -0.0046230955 -0.010771965 -0.9999313
-0.32575125 0.09082442 -0.045728985 0.27367085 0.961781 -0.009025503
0.21652766 0.09343875 0.17203483 -0.0016631029 0.99993676 0.011122954
-0.27237895 0.16227816 -0.056575373 0.22133166 -0.97518504 -0.005148529
0.13806854 0.16396952 0.10486096 0.0005798323 -0.9999971 -0.0023498468
-0.14309256 0.08457906 -0.1764102 0.019439295 0.9799797 -0.19814622
0.06261633 0.067533806 -0.08373672 -0.007110324 -0.9999618 0.0050809826
0.34542888 0.11342559 0.17036071 0.96683574 0.0064912066 -0.2553165
-0.16240554 0.089147404 0.03904308 0.0011289669 0.9998376 -0.01798719
0.35530454 0.18647994 -0.20591287 -0.03813106 0.997986 0.050694205
-0.31481007 0.16397686 0.20101447 0.0067422367 -0.99071574 0.135782
0.33658272 -0.005416845 -0.19967766 0.02953536 -0.005162778 -0.9995504
0.18620902 0.17596866 0.24227951 -0.0006850686 0.06773045 0.99770343
-0.3342836 -0.056937624 -0.1944588 -0.74715924 -0.016656488 -0.6644364
0.29181993 0.18380815 -0.08325625 -0.002181995 0.9999945 0.0024871689
0.27851665 0.041832853 -0.19132303 -0.9273502 -0.0130450195 -0.37396717
0.0805355 0.18377125 -0.18723601 -0.0039824983 0.9999885 -0.0026702574
-0.054365586 0.068202786 0.028079614 -0.00091544044 -0.99990505 -0.013746864
0.1646173 0.08295124 -0.18587247 -0.011623193 0.9210853 -0.38918722
0.14724016 0.067756474 0.12991604 -0.0008392286 -0.99999434 -0.0032653625
0.30811086 -0.17722619 0.17141679 0.008663272 0.027987858 -0.9995707
-0.3113654 -0.15808627 -0.15988582 0.0026845315 -0.027363917 0.9996219
-0.34943366 0.18721487 -0.22264823 0.014782181 0.99975747 0.016322944
-0.3239991 0.13565159 0.15849684 0.67203134 0.11930464 -0.730849
-0.2942529 0.01678563 -0.19604968 -0.017393537 0.06510587 -0.99772674
-0.23736042 0.18168959 -0.23787495 -0.0007817606 0.6375265 -0.770428
-0.27493426 -0.069636405 -0.17525244 0.9830736 0.11356888 0.14376491
0.12507975 0.082633235 -0.18591078 0.003056711 0.9064462 -0.42231023
0.0071762176 0.16354251 0.08907194 0.045543805 -0.9989153 -0.009694063
-0.27338424 0.1353418 -0.1687729 0.99889034 -0.013435697 -0.04513876
0.17495902 0.087575294 -0.06915662 -0.02382241 0.99950415 -0.02058915
-0.08963945 0.08932805 0.054104082 -0.0018148489 0.99947846 -0.032240257
0.25211316 0.18345919 0.017746449 -0.007659663 0.99996746 0.0025328766
-0.33570704 0.021445138 -0.1618802 -0.98731554 0.08151048 0.13625002
0.02306012 0.16437769 -0.03168663 0.00047297092 -0.99989104 -0.014753642
0.12508757 0.16394219 0.11495879 0.0031432891 -0.9999932 -0.0019225944
-0.0299032 0.18346065 -0.23756932 -0.00029634128 0.5885158 -0.8084857
0.3284014 0.18367338 0.07971611 -0.026190292 0.99965465 -0.0021507463
-0.08395063 0.1634251 -0.18858753 0.0062157474 -0.99597853 -0.08937606
0.18448564 0.18642868 -0.21782802 -0.0066391667 0.98663133 0.1628327
-0.17512411 0.18146527 0.09262921 0.0027744556 0.99904794 -0.04353761
0.12268026 0.16369192 0.1550535 0.0061641964 -0.9999425 -0.008773299
0.3015027 0.16380236 0.07552643 0.030488139 -0.9995351 -0.00016776865
0.36526343 0.16493684 -0.14824528 -0.09153318 -0.99547267 0.025609847
-0.39067146 0.16385137 0.047690533 -0.014921355 -0.99988335 -0.003249743
0.3901565 0.187642 -0.1283631 -0.037982218 0.9992784 0.00010673445
0.03430478 0.069838956 0.19520171 0.005832407 -0.99281204 0.11954162
-0.18510911 0.18099846 0.06344455 0.008284764 0.99990845 -0.010695432
0.14025593 0.16455519 -0.07715723 -0.0039214776 -0.9999921 0.0007171574
0.13404143 0.16377923 0.2022527 0.016987557 -0.995793 0.09004317
-0.023141904 0.068157494 0.07397154 0.0061949478 -0.9999805 0.00077818305
-0.24072216 0.08944766 0.054381765 -0.010023188 0.9998168 -0.016308656
0.18400218 0.077195846 0.20026658 0.016566785 -0.06253657 0.9979052
-0.26299238 0.16179407 -0.18920825 0.07846157 -0.98809713 -0.1323172
-0.21224244 0.08513314 -0.17951645 0.011486838 0.98405415 -0.17749792
0.34074536 0.16461648 0.016059443 0.06269522 -0.9980068 -0.0071877935
-0.2612515 0.06525157 0.11381287 0.124151215 -0.9922407 -0.0066920533
-0.2781757 -0.13113871 -0.15966767 0.42981783 -0.0778748 0.89955103
-0.005608663 0.09894707 0.19796069 0.07587538 0.34773484 0.93451774
0.40658882 0.17556107 -0.0922442 0.99294126 -0.11819358 0.009893656
-0.33373502 0.12014212 0.03878867 0.5823467 0.78921485 -0.19496748
0.02588444 0.18260215 0.032442186 -0.00047294574 0.9998378 0.01800245
-0.33749563 0.1325187 0.1213431 -0.9681361 -0.019417904 -0.24967074
0.2809867 -0.12924106 -0.19792385 -0.42525798 -0.019161785 -0.9048693
0.18877105 0.18301214 0.018600136 -0.007460538 0.99986464 0.014661712
0.35558313 0.16559494 -0.0037133899 0.10736052 -0.9942036 -0.0057343896
-0.31279394 0.0628835 -0.098222755 -0.0013275117 -0.9999978 0.0016326868
-0.025844727 0.18254268 -0.14168787 -0.0023498433 0.99999565 -0.0018005293
0.2840078 0.17789197 0.24152033 -0.00040350153 0.5218645 0.8530283
0.33115578 -0.026357232 -0.19913958 0.026958305 -0.026432253 -0.99928707
-0.32854676 0.10520974 0.03553617 0.9829048 0.09403706 -0.15828823
0.040810715 0.06778277 -0.047695868 -0.007400127 -0.9999479 0.0070339353
-0.333719 0.18689159 -0.22866426 0.014027505 0.9970787 -0.075082146
-0.111242875 0.18105604 -0.05336336 -0.0099782 0.999895 -0.010512202
-0.09355824 0.16388066 -0.13614444 0.0035545859 -0.9997997 0.019695152
0.20763828 0.16429192 0.21231458 0.003829832 -0.9999676 0.0070798486
0.19691929 0.16438954 -0.060537312 -0.00335691 -0.999993 0.0016174203
-0.23367098 0.06655071 0.07557115 0.022134637 -0.99973506 -0.006315465
-0.15625297 0.16380897 -0.008847072 0.002761828 -0.99999535 -0.0012817323
-0.29515997 -0.06661162 0.16846131 -0.057641402 -0.033418614 -0.9977779
-0.011549671 0.18388246 0.18603872 -0.02388964 0.99785304 -0.06098025
-0.14727816 0.16381194 0.0062145754 0.0020904473 -0.9999967 -0.0014800976
-0.35390413 0.18390419 -0.046905845 0.047963906 0.99884415 -0.0031396772
0.033475038 0.06840271 0.16031002 0.009381551 -0.9995497 0.02850164
-0.039697714 0.08893512 0.00053039845 -0.0060420088 0.9999219 0.010939698
-0.34890804 0.1642601 0.19658053 -0.02246971 -0.9997114 -0.008496692
-0.2145139 0.163568 0.14443398 -0.0047604656 -0.9999419 0.00967351
-0.26716697 0.16291068 -0.053553782 0.060495965 -0.998153 -0.005559171
-0.06312641 0.18169111 -0.045806892 -0.011183393 0.99988383 -0.0103595145
0.31758064 -0.08119823 -0.15958518 -0.040058654 -0.009025584 0.9991566
0.16211522 0.06836117 0.1571583 -0.011508536 -0.99834394 0.056365248
-0.27658632 0.026983434 -0.15789619 0.9247703 0.01863341 0.38006935
-0.015355629 0.09537651 0.19028373 -0.43766233 0.89825034 0.039975688
0.34683746 0.18467572 -0.0109724235 -0.044051327 0.99894387 -0.013062972
0.017199602 0.16413261 -0.21828575 0.004455516 -0.9999887 -0.0016631891
-0.24602714 0.1639059 0.16690618 -0.00140366 -0.99989414 0.014479058
0.028440768 0.07702971 0.20071675 0.0041297753 -0.05071547 0.9987046
-0.19071431 0.06452644 -0.18413626 0.046155572 -0.88076043 -0.4713075
0.1708847 0.18309252 -0.03929668 -0.00924642 0.9999561 -0.0015410699
0.31892404 -0.1700442 -0.19873068 0.07862226 0.051505897 -0.99557304
-0.19909865 0.18110703 0.053867105 0.0069273 0.9999725 0.0026396979
-0.35862398 0.18521397 -0.1817034 0.107233904 0.99149 0.07381409
0.29376596 -0.16965564 0.17111675 0.028324049 -0.0032945583 -0.9995934
0.23320557 0.16417748 0.2013934 0.0005491188 -0.9996402 0.0268153
-0.32990417 -0.07073844 -0.15636747 -0.033251103 -0.011726713 0.99937826
-0.09251322 0.06809326 -0.007083924 0.00074767676 -0.99999475 0.003143294
0.027776409 0.089985594 0.057753045 0.0024393373 0.99915254 -0.041087586
0.08638781 0.08531076 -0.17889749 -0.012293184 0.954557 -0.2977747
0.016777888 0.16282505 -0.18293443 0.14863333 -0.9854157 -0.08284974
-0.05375241 0.18213111 0.086485304 -0.010510686 0.99975085 -0.019694189
0.12369009 0.1833435 0.11467915 -0.0026091791 0.99997175 -0.0070493612
0.25531197 0.089862235 0.065682 0.0369722 0.99917936 -0.0165422
0.11161171 0.14547272 0.1871518 0.059866857 0.23385537 -0.9704265
0.26522657 0.06530935 0.15007618 -0.10473548 -0.9944863 0.005250431
0.17482777 0.18349446 0.10713715 -0.0019835022 0.9999292 -0.011733178
0.03774408 0.08915258 0.014970918 -0.0016326312 0.9999637 0.008361513
0.3251521 0.09521287 0.009039162 -0.33020103 0.9438677 0.009001424
0.3441578 0.031502426 -0.160762 0.91303205 0.05097632 0.40468988
-0.0244956 0.08819697 -0.12346839 -0.020516677 0.9996884 -0.01421676
0.331884 -0.03621539 0.16732548 -0.02139634 -0.05899603 -0.9980289
-0.0943453 0.17590185 -0.23945676 -0.0054467097 0.106430836 -0.9943052
0.0059005306 0.18284932 0.010692141 0.026220378 0.9996385 -0.0059487764
-0.34080714 0.10915202 0.18308507 -0.9749444 0.025431328 0.22098999
-0.09636426 0.18127467 0.05957354 -0.006164268 0.99995416 0.007323883
0.21755004 0.18080126 -0.2389236 0.0072806603 0.14138377 -0.9899281
-0.23378722 0.066945426 -0.0061885687 0.0073390673 -0.9999441 0.00761371
0.16110599 0.18283828 0.07783385 -0.016183406 0.99961895 -0.022360861
-0.18498448 0.18323939 0.14959945 0.004348529 0.999948 -0.00921583
0.1804507 0.06769165 0.023611937 -0.014494183 -0.99988496 0.0044550537
0.2788704 0.030354418 -0.16741854 -0.99996126 0.0059964717 -0.0064389594
0.05822212 0.18265525 -0.14179498 -0.00068653334 0.9998366 -0.018063454
-0.11478066 0.08737324 -0.11016267 -0.00032034112 0.99970835 -0.024147619
-0.34155858 0.10168369 0.15976803 -0.9733562 0.19147503 -0.1261549
-0.3462311 0.08132861 0.07474815 -0.9713804 0.2300317 -0.059206832
-0.00022717263 0.18278761 0.09317387 0.01732463 0.99946034 -0.027908515
0.27768058 0.0386353 -0.18382949 -0.99875456 -0.022890158 0.044332534
0.22439322 0.090804994 0.13150209 0.00857461 0.9999032 0.01095475
0.34746447 0.0893328 0.08760795 0.8753152 0.48352295 -0.0053692125
0.35211682 0.07551049 -0.01850932 0.9496142 0.3134179 -0.0014200164
-0.29015678 0.1604271 -0.039215297 -0.043370407 -0.999059 0.00018293317
0.33773872 0.18411224 0.032032896 -0.059720706 0.99817806 0.008605508
-0.1897715 0.08702896 -0.11428943 -0.0037974934 0.9994881 -0.031767786
0.15536052 0.18286094 -0.059082773 -0.009048091 0.99995905 -4.5774494e-05
-0.27071223 -0.08025926 0.19536984 0.98367935 -0.059378594 -0.1698504
0.3457693 -0.072720885 -0.17925441 0.9951995 -0.05873244 -0.07828423
0.26381907 0.16368875 0.0038883202 -0.041696187 -0.999123 -0.0038265972
0.19550423 0.18421218 0.17410555 -0.007917763 0.9998044 0.018123895
-0.24297856 0.089339115 0.04975063 -0.008847824 0.9997431 -0.02086866
-0.0035809702 0.16375434 -0.029149989 -0.011166793 -0.99976355 -0.018657086
-0.2525156 0.18139447 0.0033704643 0.024829926 0.99954176 -0.017310789
0.10009609 0.06747149 0.122292176 0.00096130004 -0.9999962 -0.0025939844
0.24857411 0.16429959 -0.22666606 0.0 -0.9999916 -0.00410458
-0.0027788526 0.08878283 -0.05629383 -0.0071359384 0.9992753 -0.037387438
0.26308936 0.06589219 0.029678307 -0.07162873 -0.9972934 -0.016587064
-0.3333011 -0.15889892 -0.18322124 -0.96626943 0.03767118 -0.25476333
0.046995133 0.16425203 -0.0062886705 0.0047606714 -0.9999851 -0.0026702483
0.3163661 0.08930875 -0.14729568 -0.22915433 0.15334646 0.9612352
0.34648454 -0.026248768 -0.17981866 0.99977744 -0.01009907 -0.018520048
0.2661123 0.08789383 -0.11794127 -0.21829964 0.97586465 0.0057825954
-0.31493443 0.09675494 -0.18694702 -0.100907795 0.3328591 -0.937562
-0.21861248 0.08814669 -0.06395283 0.023643652 0.99968415 -0.008526969
-0.3507702 0.16401844 0.09429888 -0.00059509266 -0.99999976 -0.00030517572
0.033064157 0.08791162 -0.07406052 -0.0021052866 0.9997975 -0.020013252
-0.25687104 0.18258962 0.077784285 0.025655217 0.9996078 -0.0112260645
0.14938165 0.16419424 -0.0060511436 -0.004760609 -0.99997205 -0.005767661
0.27806005 -0.039405953 -0.18989807 -0.9991127 -0.016632568 0.038692445
-0.10163187 0.06680694 -0.1270848 0.0013580271 -0.9999962 0.0024261381
-0.33147418 0.16353016 -0.09582117 -0.06691166 -0.99775255 0.0035473076
-0.10977249 0.17097776 0.2424747 0.0050331433 -0.02951252 0.9995517
-0.30645445 0.09325035 -0.18822981 -0.039405443 0.27649742 -0.96020645
-0.06687067 0.08824145 -0.03752579 0.0018611364 0.9997659 -0.021555621
0.06312543 0.0930256 0.15273213 0.009215271 0.99823475 -0.0586731
-0.07050508 0.09089615 0.19601497 0.011548732 0.90750325 0.41988623
-0.16267885 0.18320073 0.15250385 0.0024107667 0.9999494 -0.0097651305
-0.34857622 0.06677116 0.07736923 -0.8063584 -0.5896428 -0.04590642
-0.032182373 0.18258096 0.018402724 -0.006895871 0.99984026 -0.016492115
-0.028085083 0.06855168 0.17775185 0.015562229 -0.9979317 0.062370732
0.19189462 0.08979755 0.055127982 -0.005186408 0.9996953 -0.024132049
0.028056093 0.18295296 0.11808361 0.00051876326 0.9999314 -0.011702688
0.2960244 0.18395448 -0.15677078 0.006637376 0.99997026 0.0039213924
0.0785229 0.18271361 0.03226658 -0.0057976474 0.99988055 0.014326292
0.3285969 0.13167433 0.106925584 -0.9968453 0.058226377 -0.05393697
0.2784779 0.090338536 0.08896568 -0.025109299 0.9991275 -0.033372346
0.039116606 0.1829683 0.11849761 -0.0021207943 0.9999164 -0.012755281
0.2680029 0.09456968 0.17229305 -0.31285867 0.9462138 -0.08245585
-0.32021987 0.0795548 -0.19351944 0.050396577 0.17664433 -0.9829837
-0.19155098 0.16394363 0.18087539 -0.005416777 -0.9999828 0.002258262
0.34687668 0.063980564 0.13343255 0.4862364 -0.873601 0.019883934
-0.19595094 0.06657614 -0.09867112 0.013883094 -0.9998269 0.012387992
0.118683204 0.18287165 -0.036654957 0.0016937212 0.9999974 0.0015411336
-0.19766106 0.16404344 0.22128439 0.000717145 -0.9999748 -0.007064641
0.21554565 0.18383306 -0.15946722 0.0011138157 0.9999318 0.011626405
-0.2827835 0.060494963 0.103494085 0.15099843 -0.98820597 -0.025464397
0.13099873 0.16428515 -0.0009896487 -0.0071561015 -0.9999622 -0.0049284026
0.07627729 0.089152075 0.022721285 0.00079345674 0.99999964 -0.00024414054
-0.27359778 -0.14014661 0.20259209 0.9908429 -0.04098778 0.1286481
0.29739526 0.16443144 0.21554595 0.009777899 -0.9996948 0.022682896
-0.2304628 0.16311258 0.06411092 -0.00097642 -0.9998541 0.017056836
0.091820434 0.067498185 0.11595436 0.0018767334 -0.99994797 -0.010024503
-0.3749602 0.18445885 0.24039485 0.004360024 0.5772495 0.81655616
0.14761212 0.086306654 -0.17230679 0.0027737117 0.9987801 -0.049301963
-0.120475605 0.06820345 0.0454572 0.004531399 -0.99989814 -0.013533168
0.10944507 0.09029608 0.08448087 0.01296427 0.9995605 -0.02666064
0.34597483 0.11145651 0.20214245 0.67664915 0.17124857 0.71611446
0.22142158 0.1641519 -0.2109206 0.0019834943 -0.9999252 -0.0120688
-0.3699453 0.18611696 0.11809542 0.10060612 0.9947681 -0.0177442
0.3443415 0.09812607 -0.16904992 0.9827836 0.18452686 0.009282579
-0.3732847 0.1639323 0.16969572 0.027866129 -0.99958104 -0.00782448
0.28406894 -0.06915669 0.20871341 -0.26402196 0.053664528 0.9630226
0.279436 -0.107083805 -0.1975245 -0.43098834 -0.035956394 -0.90164083
-0.3900174 0.18793318 0.20050219 -0.006896806 0.99997586 -0.00086972996
0.33002186 -0.17482013 -0.15920675 -0.022048138 0.016709605 0.9996173
-0.321963 -0.14343072 -0.19533433 -0.07784297 -0.0708098 -0.9944478
0.021696076 0.16383317 0.0962709 0.0014343236 -0.9999982 -0.0012207009
0.0844533 0.07687852 0.20066133 -0.0005029779 -0.0472342 0.99888366
-0.05775763 0.18349485 -0.17384917 0.0010983353 0.99972916 0.023248097
0.22158977 0.164023 -0.15875953 0.0028532045 -0.9999337 0.011153435
0.13510348 0.1641902 0.014979649 -0.0072171986 -0.9999711 -0.0023955607
0.32993165 0.06290602 -0.13752994 0.034036074 -0.9993674 0.010308417
-0.3322597 0.13912071 0.12046 0.80064166 0.541419 -0.25658992
0.0063706627 0.068172984 0.06958767 -0.003463426 -0.99990785 -0.01312135
0.055919327 0.164333 -0.123169325 -0.0014188848 -0.9998714 0.015973898
0.2914971 0.18678387 -0.2244961 0.0035013938 0.9976841 0.06792704
0.012633478 0.06833159 0.16688678 0.013895399 -0.9986642 0.049767673
-0.0607834 0.1636686 -0.19093728 0.002986117 -0.99846005 -0.055395517
-0.069966875 0.066708066 0.13852537 0.0008544917 -0.99999946 0.0005493161
-0.058897346 0.087625675 -0.060318436 -0.003433003 0.9999346 -0.010909321
-0.33182383 0.18783621 0.23334743 0.005478547 0.99457633 0.10386475
-0.111158535 0.08905724 0.00045642816 0.00433311 0.99991095 0.012617895
0.060119398 0.18612963 -0.21993329 -0.0033585771 0.97460306 0.22391425
0.075540386 0.18240993 -0.066813 -0.0035855765 0.99993336 -0.010970338
-0.31351116 0.10566943 0.14941794 0.9963074 0.06139507 -0.060019247
0.18593074 0.18277282 0.046209216 -0.0026396816 0.99996626 0.00778172
-0.3447308 0.18386152 0.05020653 0.036033075 0.99934983 -0.0012351583
-0.21663104 0.088145666 -0.08803351 0.032956276 0.9994551 -0.001830057
-0.2198876 0.18104525 -0.13193648 0.015400395 0.9992874 0.03446029
0.04446978 0.18335228 0.17381331 -0.00392147 0.99999017 -0.0020751748
0.35380846 0.07247172 0.026215555 0.79713225 0.6036832 -0.01211462
-0.13912417 0.06753385 0.08521679 -0.010617556 -0.99975884 -0.019221438
0.34291378 0.06416012 -0.14089087 0.28899574 -0.9537924 0.0822285
0.13481769 0.067600146 -0.019120008 0.006270697 -0.99989384 0.01315168
0.023818191 0.08866923 -0.040211897 0.0004882231 0.9998809 -0.015424799
0.18463142 0.08973193 0.054402623 -0.008236827 0.99964577 -0.025305364
-0.27817658 0.012943683 -0.15399492 0.7225397 -0.02160916 0.69099164
0.009062627 0.06708849 0.1368655 0.0033111332 -0.9999927 0.0018768174
-0.16061436 0.16382541 -0.024494443 0.003402683 -0.9999921 -0.0020751788
-0.27178678 0.0647225 -0.06446403 0.3784905 -0.9255944 0.0044700876
-0.33028916 0.060154118 0.108260565 -0.104088366 -0.994248 -0.025229406
-0.27525136 0.16150114 -0.037141748 0.2584636 -0.96601605 0.0030959155
-0.33332688 0.06249785 -0.059830934 0.009612519 -0.9999461 -0.0039212974
0.035493292 0.16455694 -0.082572185 0.0006713863 -0.9999994 -0.00082397414
0.26984483 0.06592232 -0.025173137 -0.05882696 -0.9982609 -0.0038080632
-0.395758 0.18763337 0.21678667 -0.037921313 0.99928075 -0.0001067347
-0.28977296 0.15608808 -0.19533092 -0.044140685 -0.41451326 -0.90897214
0.22149956 0.16395247 -0.1920379 0.004312462 -0.99866265 -0.051520973
0.07818623 0.06695316 -0.11534904 -0.004882223 -0.99987924 0.014753467
-0.23291634 0.16391999 0.20477028 0.0015089279 -0.99887985 0.047294986
0.18353473 0.16423167 -0.029220173 -0.0061032632 -0.99995863 -0.006744106
0.34642518 0.0028457209 -0.17449167 0.99914426 -0.04029447 0.009330388
-0.10828557 0.1636207 0.16233496 0.005721311 -0.99987155 0.01496695
-0.33483315 0.18328147 -0.1280578 0.011946231 0.99988276 0.009581396
-0.18225576 0.08921432 0.011969428 0.013960421 0.9999018 -0.0012663552
0.33492395 -0.1881214 0.20307717 0.15863778 -0.97267956 0.16949464
-0.18422507 0.09105047 0.12225178 -0.0071088197 0.99975026 0.021189164
0.15671912 0.16418816 0.21134265 0.0017547017 -0.9999664 0.008010595
0.050365668 0.18622911 0.2113011 -0.0013834223 0.9963073 -0.0858482
-0.0065789386 0.11625003 0.18780573 -0.8257458 -0.47979704 -0.29654437
0.3445812 0.04137359 0.17382547 0.95169 0.039426245 -0.30451873
-0.11355533 0.066742025 0.14330636 -0.007353435 -0.99982303 0.01731566
-0.1788119 0.089491054 0.047584265 0.0137909865 0.9997855 -0.015453838
-0.28956175 0.15616105 0.1940092 -0.047871858 -0.208955 0.9767529
0.111534804 0.08696024 -0.15628713 0.0010655776 0.9976242 -0.06888198
0.09274587 0.18257979 0.043533817 -0.009702207 0.9997545 0.019923085
-0.3739002 0.16385476 0.07757141 0.0050963415 -0.9999815 0.003311096
0.3563457 0.16536862 0.122491345 0.03560529 -0.9993269 -0.008828892
0.17256917 0.16399986 0.029236406 -0.0024566576 -0.99999696 -0.00021362239
-0.07154084 0.08876603 -0.010535293 -0.0001678207 0.99984527 -0.01759066
-0.11429684 0.06720378 -0.088439494 0.0037827007 -0.9996092 0.027699132
0.1619163 0.18267219 0.036403768 -0.0038908932 0.9999748 0.0059355195
-0.23987216 0.18168572 0.042588312 0.019592524 0.999779 0.0076277084
0.39685214 0.16576195 -0.076263465 0.20139195 -0.9793256 0.019043364
0.27717516 -0.13464923 0.1788602 -0.99461603 0.04200893 0.09473256
-0.3030844 0.16275656 -0.21578556 -0.01986126 -0.99360883 -0.11111693
0.041815 0.18260215 -0.03766276 -0.005233613 0.999971 -0.00553878
0.33621567 0.062700324 0.012539713 -0.041452512 -0.999129 -0.0047870865
-0.13618432 0.16401784 -0.046446744 0.004638559 -0.99997574 -0.005203121
0.37660867 0.187031 -0.15357985 -0.1020183 0.99477327 0.004295667
-0.32633895 0.1034585 0.07631945 0.9348583 0.3537184 -0.030384036
0.24413878 0.065755576 -0.12835747 -0.011655821 -0.9998376 0.013745936
-0.17172796 0.1626315 -0.18393137 -0.0036026563 -0.9962181 -0.086813375
-0.20648192 0.1820758 -0.14839657 0.0061622933 0.99470943 0.10254299
-0.009768202 0.16428018 -0.06903327 -0.019420769 -0.9998111 -0.0008085631
-0.33645603 0.0038819653 -0.16761878 -0.9955849 0.05041273 -0.079177685
0.2752625 0.11561367 -0.15464741 -0.81066656 -0.1578616 0.5638257
-0.36191878 0.18464176 0.018362349 0.048191033 0.9988133 -0.007041195
-0.00034512905 0.16350026 0.02828376 0.03665712 -0.99931824 -0.004391535
0.33198184 0.14469409 0.121649005 -0.93368953 0.33440492 -0.12805177
-0.34633735 0.1838983 0.039141953 0.056215707 0.9984153 -0.0025898835
-0.17498857 0.1638225 -0.12950103 0.0028838695 -0.9999855 0.0045470535
0.23699778 0.16422184 -0.053235862 -0.002883728 -0.99993646 -0.010894083
-0.09088631 0.067719646 0.1965826 0.029402087 -0.9994269 0.01677505
0.04949515 0.1831818 0.1313603 -0.0015105417 0.999948 -0.010085535
-0.3318072 0.093361065 -0.023564218 0.026776806 0.99707085 -0.071643166
-0.0014101327 0.06796553 -0.027651306 -0.0027465539 -0.99998975 0.0036010372
-0.15532297 0.16386466 0.17581533 -0.0022887273 -0.99996024 0.008620873
0.33517614 0.12375399 -0.18185523 0.5892032 -0.13393188 -0.7968073
-0.050402343 0.1639857 0.053813815 0.00370786 -0.999993 0.0005187952
0.31631693 0.06308831 0.13487275 -0.023975182 -0.999515 -0.01987256
-0.18512276 0.16361088 -0.022746395 0.011794162 -0.99992526 -0.003219364
0.00058629457 0.16363283 -0.19832613 -0.0019523241 -0.9995899 -0.028567992
0.2588424 0.16404235 0.11030817 -0.0023803597 -0.9999952 0.001983633
-0.2889634 0.06147012 -0.0009531985 -0.009200591 -0.9999501 0.003890797
0.08770174 0.18225613 0.058129914 -0.010755228 0.99979377 0.01722362
0.22981228 0.08295922 -0.18615505 0.0030058043 0.9162251 -0.40065274
0.34236753 -0.04430788 0.20457748 0.949469 0.058747813 0.30831376
-0.30701143 0.060071744 0.116544686 0.07507446 -0.9961692 -0.04484099
