ply
format ascii 1.0
element vertex 684
property float x
property float y
property float z
property float nx
property float ny
property float nz
end_header
0.017478142 -0.120142676 -0.02113127 0.01040552 -0.99771196 -0.06680237
-0.16023374 0.1228822 0.17560427 -0.0037627064 0.99835116 -0.057278447
-0.3375558 0.124948576 0.20305462 0.00059419434 0.9984903 -0.05492489
0.21297705 0.12367085 -0.034980442 0.013347441 0.9997004 -0.020516923
-0.2119612 0.01484247 0.17185627 -0.00091520074 -0.99964327 0.026693355
0.40400425 0.022312205 -0.089488015 0.9938779 -0.069730386 0.08569952
0.37367582 0.12209031 -0.12924328 -0.040458467 0.9990528 0.016021797
0.26299632 0.010591602 -0.02715352 0.034527894 -0.9783052 -0.20427138
-0.36819825 0.011829672 -0.087719515 -0.058623638 -0.9981706 0.01478918
0.26700982 0.12146484 0.065975025 -0.0066371853 0.9999416 0.008529165
0.14870843 0.009518472 -0.07241979 0.026402334 -0.99844396 0.04911779
0.2402267 0.12260973 -0.11906509 0.015363608 0.99987024 0.0048364084
0.38013953 0.12255723 -0.17683671 -0.03057619 0.99892384 -0.03487454
-0.31558135 0.12410153 -0.14120553 0.0131646115 0.99971724 0.019800307
0.22644304 0.020595428 -0.20709349 -0.00063884724 -0.079369165 -0.9968451
0.25110158 0.06698404 -0.209095 0.07971808 -0.15243945 -0.9850925
-0.07089804 0.08530953 -0.22015639 0.0071369205 -0.057042047 -0.99834627
-0.38921332 0.12430553 0.17995678 0.04397883 0.99868214 -0.026454348
0.22265744 0.009128753 -0.11957016 0.010817737 -0.9999312 0.004531549
-0.26999798 0.1214203 0.07974855 -0.0022277776 0.9999975 -0.00016784626
-0.014517317 -0.017413223 0.04088472 0.091182634 -0.7357751 0.67105937
0.42942443 0.12440944 -0.17725584 0.33639646 0.9416974 0.0065810764
0.13428122 0.014479913 0.17630318 -0.005348837 -0.9986934 0.050821573
-0.06116413 0.017282685 0.2014919 -0.01446989 -0.9511521 0.3083833
-0.1634221 0.12337395 -0.12858702 -0.010480432 0.99977523 0.018428475
0.3352905 0.12163422 0.082671344 0.00090025476 0.9999847 0.0054625627
0.037819654 0.019038154 0.21321987 0.21788855 -0.54803914 0.80757517
0.2916034 0.0045428057 -0.16847783 0.0021951564 -0.99904007 0.04375069
0.053958077 0.02317097 -0.20888543 0.055742536 -0.3149261 -0.9474779
-0.102104485 0.04058608 0.21549937 0.029281396 -0.3275424 0.94438267
0.042865787 0.015683014 0.09540284 0.20963328 -0.9767188 0.045545235
-0.05779247 0.1005247 0.22681807 0.020362178 -0.94508195 0.32619864
-0.30794987 0.009639659 -0.15187293 0.0034614368 -0.99933356 0.03633746
0.041288566 0.12457754 -0.20014535 0.011683772 0.9996184 0.025030117
0.046335712 0.011975838 -0.0462948 0.17756222 -0.9839112 -0.019757494
0.40607524 0.053269062 -0.16445969 0.9994234 0.014441742 -0.030728731
0.27626634 0.01284485 0.17020237 0.0046039857 -0.99909544 0.04227435
0.40785146 0.054559276 0.1943938 0.67669404 -0.73306555 0.06855711
0.1659474 0.124576926 -0.219969 0.00944465 0.99994284 0.0050198548
-0.4292492 0.11221817 0.13836037 -0.99686486 -0.07608518 0.021713633
-0.03953836 -0.015569422 -0.1744722 -0.7654992 -0.476644 0.43222857
-0.29279694 0.016375102 0.106404334 0.032788705 -0.99946076 0.0017538145
-0.29683203 0.12323295 -0.23683392 0.017864022 0.77310205 -0.6340301
0.3768268 0.12259273 0.16263437 -0.07298103 0.9972654 -0.011641053
-0.035850238 0.12551956 0.21658395 0.0027446058 0.99928045 -0.037829816
0.2212909 0.114637226 -0.23391564 0.022493085 -0.13198715 -0.9909962
0.3208989 0.014873602 -0.05393742 -0.0012193599 -0.99889964 0.046884388
-0.419084 0.046008922 -0.007847676 -0.99583113 -0.089879476 0.015559861
0.3077074 0.12150894 0.16509868 -0.0104633905 0.99960464 -0.026097465
-0.1718639 0.0150040565 -0.0753126 0.035437487 -0.9976079 0.059351705
-0.2163529 0.12360899 -0.16684382 -0.0033872512 0.99994093 -0.01032959
-0.30971617 0.015805151 0.13392529 0.01842627 -0.9996556 -0.01868558
0.24285975 0.12294046 -0.009985933 0.0078095286 0.99961966 0.026448676
0.316462 0.12200977 -0.057483748 0.0044555054 0.9999863 -0.0027312858
0.13295959 0.12327927 -0.18603015 0.011455428 0.9996577 0.023520999
-0.4144223 0.03381707 -0.09431699 -0.98373085 -0.1705948 -0.056312047
0.2820387 0.015835369 0.20070776 -0.000589166 -0.99004066 0.14078046
-0.040764727 0.0026467326 -0.012605551 -0.8769734 0.47602683 0.06569704
0.124193296 0.12143947 0.09221314 0.0028685464 0.99996305 0.008102118
0.2291651 0.0074039553 -0.010320715 0.01876357 -0.9989353 0.04214563
-0.363746 0.1245657 -0.2023808 0.0048048124 0.999645 0.026205294
0.03360728 0.014171214 0.1711587 0.010874109 -0.999503 -0.02958734
-0.18136501 0.07219152 -0.21849729 0.0207455 -0.12992598 -0.99130666
0.42074606 0.12707718 0.23722324 0.025480488 0.88447523 0.46589088
0.11807309 0.011282719 -0.043905783 -0.039092965 -0.99921864 -0.005809056
-0.08835488 0.015072213 -0.05324321 -0.03191854 -0.9980026 0.05451735
-0.22079296 0.031836968 0.21570891 0.021452582 -0.16585885 0.98591614
-0.24892169 0.123680115 0.18534337 0.0012457147 0.9955995 -0.093702056
0.38140863 0.008996265 -0.022558006 -0.14796817 -0.9749892 -0.16583563
-0.08968763 0.10482827 0.23492867 0.0012291429 -0.56952876 0.8219705
-0.35526115 0.014574615 0.18086548 0.078002736 -0.9861087 -0.14664635
-0.41240084 0.12664449 0.21516106 -0.014764005 0.9954463 -0.09417369
0.03693766 0.121812366 0.108223125 0.00065602537 0.9998437 0.017666915
-0.41038737 0.022236856 -0.13296127 -0.9956046 -0.039916243 -0.084724225
-0.04814863 0.015447482 0.17855284 0.0035705268 -0.99999166 0.0019683673
-0.08325224 0.016207548 0.15853824 0.0033734199 -0.99139214 -0.13088265
-0.24144143 0.016813781 0.11871827 0.00060943014 -0.9984903 -0.05492489
-0.41349795 0.08624645 0.12616825 -0.9844674 -0.17556706 0.00043563163
-0.22059178 0.09612478 -0.22115628 0.006141696 -0.23877789 -0.9710548
0.07660493 0.011401616 -0.17349981 -0.042379808 -0.9990659 0.008445472
0.3233074 0.12207912 -0.036693916 0.0041044303 0.99995524 -0.008529281
0.39837086 0.04096258 0.16787417 0.92902464 -0.11750313 0.350865
0.12242533 0.12392595 -0.1290645 0.0011596666 0.9999988 -0.0010375964
0.069863506 0.01172325 -0.17673282 -0.06544549 -0.9969864 0.04165266
0.23076716 0.014515303 0.13044153 -0.0024064723 -0.99816823 0.0604512
0.026538812 0.116683915 -0.23802131 0.0038901453 -0.09062823 -0.9958772
-0.027426103 0.012287599 0.045409843 -0.28351024 -0.94912785 0.1370338
0.43086886 0.10278447 0.14595231 0.89866054 -0.4383877 -0.015015156
0.4224864 0.12478857 -0.23057343 -0.0097044 0.97245806 -0.23287593
0.34950325 0.013602086 -0.10799345 -0.09037392 -0.9957195 -0.019371679
0.3443891 0.01593168 0.050287493 0.0020420295 -0.99870485 0.050837394
-0.110690825 0.12365525 -0.0102432 -0.023720255 0.99969816 0.006391503
-0.17155905 0.12146548 0.09628908 -0.0010528514 0.99999523 0.0028991562
0.36322728 0.12313093 -0.21409874 0.004560883 0.9996724 0.025184007
0.2605246 0.014011532 0.11485793 0.015692815 -0.99946 0.02886929
-0.23016357 0.07812676 -0.22039044 0.01564024 -0.21635585 -0.97618926
0.2389043 0.0030488095 -0.1886314 -0.01075249 -0.99953926 0.028383523
-0.13048883 0.017859338 0.12162273 0.030570732 -0.99824786 -0.05066181
-0.41684076 0.07846705 0.055878032 -0.99554765 -0.03910125 0.085767545
-0.28428012 0.01548909 0.15410143 -0.010707177 -0.99958056 -0.026905214
-0.058477692 -0.013013627 -0.0037503347 -0.47501647 0.029054431 0.8794971
0.01004617 -0.096775495 -0.013085959 -0.0006103438 0.9999873 0.0050048195
-0.20671232 0.046728693 -0.21169056 -0.009717302 -0.2703584 -0.96271074
-0.17781423 0.1246106 -0.23110798 0.005834678 0.9957851 -0.091531515
-0.15992862 0.104426496 -0.23136924 0.009993098 -0.7379195 -0.6748147
0.3207078 0.01585828 0.050979532 -0.027368784 -0.99924266 -0.027658481
-0.41909504 0.0756276 4.3196836e-05 -0.9969809 -0.07145415 0.03038741
0.16553868 0.03236275 -0.20788091 0.010668297 -0.029412167 -0.9995104
0.30977675 0.050082963 0.21416403 -0.054195195 -0.08525497 0.99488413
-0.36894482 0.105773695 -0.23702039 0.021207914 -0.57623625 -0.81700796
-0.14374234 0.01765905 0.11769355 0.030536432 -0.9976249 -0.061742656
-0.07586694 0.020117512 0.112369545 0.01587843 -0.9996242 0.022345725
-0.17640552 0.014272095 -0.026809132 0.030092115 -0.9801774 -0.19582309
0.12765111 0.009026457 -0.09864772 -0.011731482 -0.99978465 0.017116675
-0.30039668 0.06010267 0.22054063 0.048507243 0.15353765 0.9869515
-0.3817293 0.12587442 0.2358166 0.039241422 0.93551314 0.35110572
0.18458362 0.123852536 -0.055174217 0.008894994 0.99990106 -0.010893698
-0.24063976 0.12219901 -0.08958693 -0.0023649917 0.99994904 0.009810901
-0.07512831 0.017201127 0.15188867 0.018643519 -0.98772967 -0.1550562
0.22835274 0.0030478004 -0.18951051 -0.0037881723 -0.9970348 -0.076858826
0.4063194 0.017916635 -0.113386266 0.9819939 -0.17227148 0.07752741
0.13213482 0.098713346 0.22433434 -0.0023918746 -0.938646 0.34487393
-0.1559032 0.017950825 0.09705434 0.012506385 -0.9995347 -0.027819082
0.06369911 0.08965421 0.21845952 0.03431063 -0.04308635 0.998482
0.063485354 0.012907697 -0.04461365 -0.0032958123 -0.99997383 -0.0064390404
-0.12654306 0.12357565 0.188042 0.0030917313 0.9981267 -0.06110358
0.06136602 0.008568565 -0.18222584 -0.024093458 -0.72132885 0.69217354
0.0038680676 -0.027754461 0.026900563 0.65551364 -0.48324558 0.58032364
-0.38683864 0.0095441835 -0.16581564 0.067935474 -0.99736094 -0.02561277
-0.0538444 0.12423935 -0.0352499 -0.0026092278 0.9999904 -0.0035247465
0.43339497 0.11082209 -0.09052394 0.99702203 -0.07697955 -0.004609645
0.43569165 0.11320014 0.22453475 0.9697397 -0.23890136 -0.05030998
-0.16706614 0.043537524 0.21847965 -0.00080374745 -0.22021192 0.9754517
0.15255494 -0.011579082 -0.0024567442 0.077690706 -0.98673224 0.14256094
-0.18327853 0.12488992 0.2048638 0.0009906333 0.9988021 -0.04892204
-0.34374577 0.015432204 0.15908083 -0.016079478 -0.9997957 -0.012250304
-0.24135914 0.12211453 -0.015365675 -0.0015868713 0.99997306 0.0071714376
-0.36968 0.015386404 0.0939029 -0.06846029 -0.9974686 0.019223066
0.087863185 0.009419499 -0.11231494 -0.047779936 -0.99818486 0.036661237
-0.036275268 0.008064169 -0.092124656 -0.76121104 -0.6267008 0.16674472
0.36385056 0.12146 -0.06400928 0.0130451545 0.9999149 -9.154494e-05
0.020567346 -0.022546874 -0.030956589 -0.118846714 -0.13825317 -0.9832403
-0.12442396 0.12199186 0.06418099 -0.004088626 0.99982154 0.018444583
-0.077225305 0.12177504 0.12269232 0.00025938932 0.999961 -0.008819236
0.35216922 0.01282168 -0.1161963 -0.20459037 -0.9732894 0.10416644
-0.14718375 0.013929121 -0.101698436 0.017594839 -0.9983509 0.054643016
0.10353468 0.12203145 0.152549 0.013105782 0.9998842 -0.00773531
-0.3363128 0.10485129 -0.23526295 0.03640232 -0.61852795 -0.78491914
-0.17634775 -0.10123648 0.006985079 -0.008636486 0.92182523 0.38750952
0.17961866 0.076484695 -0.21460257 0.05704279 -0.22627938 -0.9723908
-0.11834495 0.01858373 0.116956554 0.047526997 -0.9983107 -0.03342123
-0.4068613 0.039548554 0.1692162 -0.9929338 -0.11217777 0.038710725
0.07749507 0.122463584 0.044785537 0.01725506 0.9989643 0.042101126
0.06119079 0.12389794 -0.11868929 -0.0030516395 0.99996126 0.008254685
0.05015702 0.0071253744 -0.160052 0.4265474 -0.8604208 -0.278807
0.23763442 0.12178988 0.19316317 -0.0012664164 0.9999502 -0.0099024605
-0.29594487 0.09860942 0.22222744 -0.034509547 -0.7599521 0.6490623
0.3085179 0.12199309 -0.10884215 0.0028228636 0.99999565 -0.0008697472
0.2627198 0.1229052 -0.022683013 0.022774134 0.9996823 0.01079979
-0.3194346 0.057615586 0.22133479 0.00920198 0.13901186 0.99024796
-0.06450264 0.028513959 -0.20935994 -0.048739213 -0.2327431 -0.97131616
-0.11389084 0.013950607 -0.08702443 -0.12804887 -0.98306155 0.13112395
0.19332272 0.09735459 0.220943 -0.001224509 -0.97865146 0.20552337
0.007966437 0.12302425 -0.23559698 -0.0006854879 0.75069463 -0.660649
-0.11511551 0.015984735 0.19068296 -0.011440715 -0.99837375 0.05584775
-0.010604709 0.12443989 -0.03173916 -0.00032041073 0.9999256 -0.012190865
-0.02065313 -0.017521057 -0.039947003 0.03540162 -0.8859175 -0.4624899
-0.30416346 0.078471914 -0.21991578 0.060743652 -0.30100998 -0.9516844
-0.36166793 0.01458146 0.037601713 0.017327879 -0.99964774 0.020104
0.28620166 0.008368163 -0.20292701 0.044877533 -0.5144616 -0.8563383
-0.37550884 0.015706886 0.08707907 -0.06865208 -0.99760145 0.0088440925
0.1274114 0.12155635 0.12817428 0.0066066184 0.99993384 -0.00941405
-0.2389732 0.1246405 -0.212584 0.0003049914 0.99939585 0.03475377
0.37855947 0.016890284 0.068178214 0.25038674 -0.96810293 -0.009114373
-0.16327758 0.12253258 -0.017625902 -0.017360821 0.999788 0.011075532
-0.024235867 0.12204453 0.095686145 -0.0129023185 0.99948746 0.02929711
0.12995757 0.050639063 -0.21256414 0.01719779 -0.27937105 -0.9600292
-0.16031677 0.12373105 -0.14710175 -0.007918196 0.9998591 0.01479894
0.21518141 0.12332239 -0.06361266 0.020728868 0.9996226 -0.01802908
0.14586054 0.121507846 0.07777636 0.0013580014 0.9999773 0.0066069057
0.1488034 0.013785306 0.07454304 0.011973124 -0.99958044 0.026371378
-0.42947096 0.122794226 0.23085178 -0.9696459 0.029842772 0.2426852
0.013724409 0.026617106 -0.21306387 0.03139363 -0.24179256 -0.96981996
0.18382083 0.12334537 0.0032333867 0.014904316 0.9997638 0.015819628
-0.40118086 0.015978366 0.06004926 -0.11548865 -0.9928721 0.029451651
0.04446511 0.09158613 0.21961778 0.15004447 -0.0042089694 0.9886703
-0.17790864 0.014672789 -0.02903325 0.016038377 -0.9804954 -0.19588663
0.011704978 0.12282456 0.071764976 0.0068474435 0.9994523 0.032376666
-0.13239445 0.01135166 -0.18443008 0.010698481 -0.92012554 0.39147738
-0.21217984 0.12333348 -0.18157336 -0.001037179 0.99959654 -0.02838515
0.24965616 0.018586965 -0.20708373 -0.0049009593 -0.0436818 -0.9990335
0.051164273 0.10072117 0.22731122 -0.0096913995 -0.9681944 0.2500115
-0.40932438 0.064319424 0.16947402 -0.990193 -0.13744035 0.02505852
-0.33589488 0.015301619 0.17534605 0.015332836 -0.9998535 -0.00761302
0.302832 0.122076616 -0.054762706 0.005874411 0.9999621 -0.0064237067
-0.02724064 -0.013837281 -0.05361824 -0.059266556 -0.99822485 0.0058794376
0.40757975 0.08674867 -0.184682 0.9250509 -0.36781275 0.09483974
0.12609477 0.03647316 -0.2094303 0.04330421 -0.15287162 -0.9872968
-0.16911656 0.122088805 0.040856015 -0.013547114 0.9998014 0.014615017
0.05872698 0.02524765 -0.20924705 0.0550212 -0.29122633 -0.9550707
0.26319453 0.011943999 -0.05431263 0.015943384 -0.9998714 0.0017087646
0.2777209 0.12233594 0.021304345 0.0043172785 0.999778 0.020625303
0.14103234 0.1232118 -0.18636554 0.0075963857 0.9996722 0.02445182
-0.38310876 0.011423571 -0.020927554 0.14078993 -0.99000096 -0.008731393
0.01516144 -0.046155587 -0.19490373 0.1298978 -0.29585308 0.9463602
0.41576257 0.09130228 -0.03218941 0.7485673 -0.618466 -0.23905379
0.2094005 0.122616075 -0.18433915 0.013135879 0.99985254 -0.01106099
0.33702874 0.07947559 0.21395272 -0.08157844 0.17002001 0.9820581
-0.15311128 0.0118344 -0.14140518 0.05723907 -0.9976648 0.037266288
-0.2928017 0.12406316 -0.1750196 0.010877861 0.9998478 -0.0136392815
-0.09661206 0.015687987 -0.045076687 -0.028830592 -0.9991759 0.028571406
-0.264688 0.065744825 -0.21732819 -0.035052698 -0.2665181 -0.96319234
-0.19280876 -0.10112756 -0.0005704672 -0.11871556 0.98626393 0.11484791
0.43382904 0.11834885 0.108348235 0.9792836 -0.1989618 -0.037655555
0.28707257 0.12206634 -0.101605795 0.004287673 0.99998915 -0.0018310348
-0.004467807 0.124074444 -0.083115675 -0.0019377329 0.9999312 -0.011565367
-0.13082585 0.070588306 0.21920303 0.016160682 -0.10380772 0.99446607
0.3931575 0.096412055 0.21715099 0.041907955 -0.9886536 0.14424905
-0.016693575 -0.05030624 0.027867233 0.2864265 -0.8182402 0.49844033
0.21435623 0.123689786 -0.033112347 0.013349638 0.999865 -0.009581226
0.0866846 0.12158505 0.10619245 0.004882744 0.99998593 0.0020751662
0.07805734 0.0522171 -0.21333607 0.026557619 -0.28679702 -0.9576232
0.4132508 0.095501795 -0.22064082 0.67570055 -0.5289734 -0.5134354
-0.38680023 0.123847105 0.032291926 0.11802402 0.9929169 0.013650789
0.095170744 0.05542891 0.21654539 -0.06709544 -0.08965771 0.99371004
-0.18764716 0.124597356 0.19908975 0.0009293463 0.9984531 -0.055593193
-0.21355471 0.12208941 0.0055678883 -0.003677343 0.99999315 0.0004882779
0.41652426 0.12579033 0.16665487 -0.10898137 0.9940436 -0.00056121236
0.16487372 0.12450273 -0.22496884 0.009361759 0.99761343 -0.068409346
-0.4068917 0.0410796 0.19743375 -0.98776275 -0.030242095 0.15300405
0.030868344 0.014209868 0.16869663 0.0155678345 -0.99926895 -0.034917083
0.047313772 -0.005134799 0.005744501 0.9032144 0.32466158 0.28071094
0.15759788 0.007971154 -0.16691753 0.012977354 -0.99822056 0.058200084
0.2334067 0.12025376 0.23929188 -0.0019120282 0.6629983 0.7486184
0.16137592 0.12351447 -0.16824743 -0.0006405006 0.999425 -0.033900786
-0.20661716 0.01881368 -0.20535184 -0.013045913 -0.39600596 -0.91815525
-0.38466123 0.12456548 -0.190281 0.011671139 0.9998428 0.013349341
-0.013912585 0.12445682 -0.0236832 -0.003356884 0.9999852 0.0042723976
-0.046900406 0.07121854 0.2190137 0.011309863 -0.10019476 0.99490356
0.18222547 0.10121394 0.23273621 -0.007243444 -0.85842013 0.5128961
0.20859513 0.12158502 0.17267713 0.0033566086 0.99990314 -0.013502721
-0.007176558 0.12422203 0.034005214 0.0012054123 0.9999735 0.007186699
-0.39149088 0.072400376 -0.2180658 0.013052737 0.0026090217 -0.99991137
0.26657772 0.0037754732 -0.19309491 0.042780682 -0.9942109 -0.09856244
0.2934904 0.012238963 -0.20405757 0.073332645 -0.27780905 -0.95783323
-0.34158382 0.010701444 -0.18801601 0.022215767 -0.998582 -0.048377957
-0.10676799 0.01587834 0.15957074 0.012135363 -0.99412894 -0.10751932
0.095440514 0.012057447 -0.050744664 -0.045534696 -0.9983813 0.034078658
-0.34711543 0.1254732 0.21209846 0.0064112903 0.99802923 -0.062422514
0.055766974 -0.11062515 -0.013435906 0.29343298 0.955929 -0.009845765
0.2462053 0.09901255 0.22825313 0.030112933 -0.978424 0.20440067
0.2942084 0.12213885 -0.14403242 0.003509414 0.99996936 0.0070035695
-0.40483925 0.015464516 -0.017223628 -0.1885876 -0.98183006 0.021079024
0.35230246 0.12163782 0.00933429 0.03397614 0.99939877 0.0069080754
0.34006974 0.014621262 0.016424559 -0.07010305 -0.98929226 0.128009
-0.30992407 0.08651811 0.21889569 -0.034238502 0.106385 0.9937354
0.240497 0.014718153 -0.20665103 -0.011332962 -0.11237446 -0.99360126
-0.061174087 0.04032001 0.21445979 0.030829858 -0.40117928 0.91548055
-0.08691761 0.123379834 0.17886595 -0.0052023563 0.9998288 -0.01775819
0.15314683 0.013852415 0.10184147 -0.0352409 -0.9993715 -0.003827549
0.30512965 0.12201248 -0.06635208 0.00247191 0.9999944 -0.0022582882
-0.06417814 0.12420084 -0.042625718 -0.0036773342 0.99999076 -0.0022430213
-0.42065766 0.05819281 -0.079115145 -0.9969057 -0.06948647 -0.036751162
-0.38359886 0.016028343 0.089605734 -0.039768532 -0.9989539 0.022574626
-0.21745731 0.12346801 -0.13993989 -0.00506491 0.999801 0.019298527
-0.42872524 0.12267981 0.10437428 -0.92504007 0.3795027 0.016690977
0.2609656 0.009567808 -0.124905646 0.042943288 -0.9990527 -0.0070428825
-0.3863544 0.12324406 0.055721086 0.14630166 0.98855734 0.0367452
0.055114757 0.12392081 0.23659971 -0.00036755032 0.7299327 0.6835189
0.4297851 0.12443187 0.05566731 0.21050686 0.97759193 0.0009546796
-0.12816495 0.019590015 -0.20645602 -0.0027144395 -0.2345691 -0.97209567
0.25689635 0.12256275 -0.14875576 0.013304468 0.9999101 -0.0016478011
0.07853235 0.016754933 0.15354457 -0.034402203 -0.993646 -0.10716385
-0.23659815 0.1231653 0.17959344 0.0009859628 0.9940932 -0.1085257
-0.3944755 0.124645196 -0.10908783 0.018124454 0.99983525 0.0009764016
-0.031688586 -0.04981482 0.012549396 -0.8732192 -0.4099544 0.2634874
-0.09130761 0.07737598 0.22021896 -0.01681594 -0.10212496 0.99462944
-0.41738558 0.100493945 -0.1725586 -0.23638895 -0.97031105 -0.05115394
-0.43176448 0.118260786 0.043976996 -0.9954335 -0.07652274 0.057065487
-0.4100562 0.015929934 -0.07315184 -0.32616585 -0.9452377 -0.011899126
-0.13979952 0.018049104 0.11215727 0.024613867 -0.99882 -0.041866433
-0.34313625 0.011110442 -0.110196024 0.014110787 -0.9997455 0.017604161
0.1515217 0.09912963 0.2267294 -0.022875313 -0.97095627 0.23816104
0.16486305 0.12384456 -0.14646462 0.00756807 0.9999618 0.0043791053
0.2106907 0.12280275 -0.2289641 0.029330425 0.8669391 -0.49755028
-0.42022368 0.08267154 -0.019334989 -0.9925489 -0.11685198 0.034530815
0.11434071 0.01989134 -0.20676944 0.016488787 -0.1661817 -0.98595726
-0.17956775 -0.099703945 -0.0002166694 -0.038924433 0.9847343 0.16965628
0.14931649 0.007686584 -0.13366279 0.030244002 -0.9995315 -0.0047127567
-0.09131594 0.07513199 -0.21844515 -0.0043831132 -0.124309324 -0.9922339
0.2553223 0.12221651 -0.17301218 0.009589565 0.99914426 -0.040233485
0.23028533 0.12297361 -0.1532549 0.01888687 0.99981415 -0.003875012
-0.040286414 0.12430213 -0.031188663 -0.0034483976 0.99997425 -0.006286459
-0.23227748 0.12363341 -0.15900792 -0.002273545 0.9999935 0.002807599
0.2952912 0.12004514 0.23997901 -0.018259464 0.5871699 0.8092578
-0.09222506 0.014078381 -0.17734551 0.0006600036 -0.9830454 0.18336101
-0.0974384 0.09643654 -0.22126448 0.00493295 -0.53791016 -0.8429877
0.04234461 0.12423147 -0.04238192 0.0016937231 0.99999857 -0.0
0.34184155 0.014302166 -0.088877074 0.050343264 -0.99827415 0.030236423
0.30130547 0.12222818 -0.006235358 0.0045775683 0.99998504 0.002990678
-0.13934696 0.12304734 -0.035399 -0.015726432 0.9998757 0.0011109241
0.13953672 0.12196109 0.17086004 0.009657782 0.9998931 -0.010969897
0.03912738 -0.030234013 0.021121494 0.76622564 -0.5497269 0.33271405
0.16517201 0.05627265 -0.2130531 0.029791795 -0.2996935 -0.95357025
0.05397821 0.04125076 0.21450408 0.32811987 -0.28718558 0.8999232
-0.36579728 0.010712594 -0.15372463 0.04240176 -0.9892637 0.13985486
0.14289819 0.014972128 0.1510457 -0.014203623 -0.99983746 -0.011106593
-0.020769699 0.1219124 0.10360895 0.0017546244 0.9999223 0.012343401
0.39805877 0.019614335 0.028027857 0.6728109 -0.73268956 0.102428004
-0.21711653 0.09767428 0.2222558 0.0028110847 -0.8857079 0.46423444
-0.42982912 0.11816497 0.12390407 -0.99872184 -0.049619116 0.0096236095
0.05161166 0.12263326 0.1661495 0.0004866052 0.9965674 -0.08278371
0.21989831 0.011870649 0.08956935 -0.0047145677 -0.99991554 -0.012114455
0.067046896 0.01547714 0.19654624 0.017115727 -0.99089783 0.13352384
-0.069812275 0.025034074 0.21037224 0.018916741 -0.368763 0.92933095
0.104790576 0.12490908 0.21540928 0.00882408 0.9987822 -0.04854006
-0.21817268 0.01472528 -0.0711449 0.011660827 -0.99765533 0.06743795
-0.058862366 0.12187057 0.1315478 -0.0006560572 0.99989223 -0.014662117
-0.37754965 0.124100104 -0.03806559 0.02501566 0.9996502 0.008587693
0.2819139 0.122034155 0.18593799 -0.010465466 0.9998029 -0.016872894
-0.2836554 0.015296628 -0.0352087 0.009440161 -0.99946755 -0.031233361
-0.08093063 0.015368659 0.1723133 0.0012969958 -0.99999905 -0.0004272457
0.1155344 0.117211886 -0.23625477 0.034406867 -0.18687955 -0.9817801
-0.22442748 0.026192375 0.21499512 0.02160469 -0.11691683 0.9929067
0.42576793 0.096299134 0.0814614 0.5265702 -0.8500707 -0.010180122
-0.10203911 0.012622325 -0.09316053 -0.051077675 -0.9980401 0.03615337
0.2524084 0.010458249 -0.0286663 0.03529526 -0.9503328 -0.30922773
0.027848126 0.12435652 -0.18397203 0.0060391305 0.9994456 0.03274246
-0.42237294 0.102085605 -0.20772804 -0.2813758 -0.9595299 0.011405544
0.0863584 0.12193723 0.059451297 0.011610076 0.9998396 0.013639169
-0.21333021 0.079500504 0.21932493 0.005218006 0.012816155 0.9999042
-0.43019792 0.11437508 0.08652334 -0.9950431 -0.096845746 0.022584941
0.31532228 0.1220882 -0.16590215 -0.0068205073 0.99997485 -0.0019378174
-0.14461218 0.124759264 -0.21650371 0.00018307738 0.99984664 0.017514402
0.42563364 0.12505063 -0.14365335 0.050199084 0.99873924 -0.0
-0.42869404 0.11147938 0.20400073 -0.99352515 -0.113578655 -0.0027666984
0.0011595134 0.12422281 -0.12401696 -0.005538576 0.99993414 0.01005488
0.4329845 0.11313404 0.07302637 0.99903345 -0.04394857 -0.0008384222
-0.012702769 0.027273867 -0.2129975 -0.015918408 -0.2308028 -0.97287035
-0.15743428 -0.10036006 -0.013519603 0.07027228 0.9784075 -0.1943722
-0.2811946 0.12193686 0.0026954752 0.00057983265 0.99999774 0.002044673
-0.19580412 0.12149681 0.08630379 -0.0022428478 0.9999134 0.0129688475
-0.28205338 0.015393379 -0.042384382 0.010587333 -0.99978596 0.017772684
0.05183548 0.12382174 -0.11462516 -0.0048213243 0.99990606 0.0128314365
-0.082414016 0.12406853 0.0069293054 -0.01633956 0.99984074 0.007185745
-0.041494027 0.016441775 0.039506283 -0.026326507 -0.99557644 0.090190694
0.30701208 0.013463966 0.16106488 0.0010362746 -0.9987249 0.05047267
-0.2951185 0.121713586 0.16010024 0.0008083943 0.9996024 -0.028187029
0.36023745 0.121687554 -0.12066117 0.011214072 0.9998985 0.00878817
0.010077902 0.1238791 0.0487397 0.0040549585 0.99904424 0.043522205
0.022516578 -0.010338551 0.035162926 -0.4652335 -0.25811422 0.84672004
0.38446122 0.09802298 0.22546008 -0.064150535 -0.87678194 0.47659007
-0.3922755 0.016558476 0.090562746 -0.07133079 -0.9958958 0.05570914
0.4150788 0.124423526 0.029263165 -0.06063347 0.99816 0.00027415284
0.17151296 0.11120544 -0.23439184 0.015670484 -0.302204 -0.95311445
-0.017850308 0.123918936 -0.10514073 -0.004653745 0.99996006 0.00762909
-0.36480364 0.12503718 -0.22349736 0.004195292 0.99979144 0.019984845
0.29340893 0.122649245 0.199997 -0.016967954 0.9982153 -0.057255425
0.2118669 0.014554128 0.1347704 0.0077139046 -0.99908787 0.04199962
0.28892776 0.124290936 0.21534972 -0.011817594 0.996754 -0.07963568
-0.042611063 0.10093288 -0.2271844 -0.026977804 -0.8632897 -0.50398713
0.26229098 0.06505605 -0.20799172 0.055576194 -0.11541992 -0.9917608
-0.34780157 0.121827796 0.055267964 0.0046376195 0.9997731 0.020793011
-0.15797111 0.015071191 0.1767946 0.0044061467 -0.99917376 0.040402383
0.21463549 0.011917978 0.088427134 -0.008879546 -0.99987954 -0.012724297
0.4272533 0.097182795 0.067578234 0.4772429 -0.8787213 0.009385756
-0.35464787 0.124113105 -0.13082492 0.0058126147 0.9998308 0.0174531
-0.0605389 0.12361264 -0.120353706 0.0093827145 0.99984646 0.014798752
0.34480146 0.01528347 0.06286225 0.029131569 -0.99229026 -0.12046298
-0.3733792 0.122405075 0.1370985 0.059686624 0.9981175 -0.01410304
0.30301616 0.10250666 -0.22871712 -0.008406639 -0.7173666 -0.6966452
-0.39070114 0.017830076 0.1260548 -0.18406661 -0.9828163 0.01384185
-0.22114363 0.01704578 0.11846051 0.014501671 -0.9972524 -0.07264531
0.04367356 0.015747624 -0.20941825 0.24451716 -0.36799586 -0.8971011
-0.14761136 0.12395089 0.1919739 0.0060706846 0.99711376 -0.07567816
-0.012440781 -0.096477754 0.030286217 -0.035638504 0.9964185 0.076682076
-0.43295446 0.108023115 -0.13851078 -0.99659985 -0.079790644 -0.02054453
0.025675498 0.0146785835 0.15721914 0.0051323534 -0.9980828 -0.061679617
0.27475622 0.12215262 0.031263452 -0.0008695835 0.9998075 0.019603768
0.21740489 0.12298723 -0.12464053 0.020564461 0.99978673 0.0018764308
-0.4103837 0.07152912 0.17255934 -0.98134726 -0.18993987 0.029671319
0.04163102 -0.10361951 -0.022592304 0.6632184 0.3257229 -0.6738294
0.15242065 0.12417804 -0.032298554 0.004302808 0.99996036 -0.007796932
-0.417283 0.050022207 0.062403746 -0.9962282 -0.04072411 0.07662183
-0.18085012 0.015538761 0.04194622 0.01094201 -0.9973513 0.07190681
0.138176 0.11631656 -0.2355166 0.01728328 -0.0683188 -0.99751383
0.2940452 0.122013964 -0.12008482 0.0047911825 0.9999839 -0.0030211916
0.2188684 0.12148724 0.06065061 0.0035856809 0.99996245 0.007888498
-0.38562194 0.01653125 0.109777786 -0.14073087 -0.99001056 0.008595521
-0.12127107 0.12008423 -0.23693739 0.0021875852 0.5632045 -0.8263146
-0.18152377 0.12345849 -0.17674689 -0.0010679365 0.9998327 -0.018261714
0.085636854 0.12422987 -0.042611506 0.0005645749 0.9999995 0.0007476803
0.12581472 0.0066938936 -0.19898054 0.015634323 -0.7791252 -0.6266734
-0.0506994 0.12494681 0.20305735 -0.0020869018 0.9983007 -0.05823522
-0.09601654 0.018546194 0.13982911 0.035979163 -0.9949073 -0.09415306
-0.4263557 0.10213952 0.20541467 -0.8198283 -0.5627751 0.105668485
0.030661993 0.118315525 -0.23814736 0.0057035554 -0.09520608 -0.99544126
0.21765015 0.014282893 0.12768081 0.009092712 -0.9981574 0.05999362
0.15960075 0.12454097 -0.22523835 0.010918063 0.9979445 -0.063148126
-0.42415836 0.12567557 -0.22203791 -0.108320884 0.9941069 0.0042624515
0.2301022 0.12264088 -0.09818581 0.018246468 0.9998332 -0.00080858095
-0.33651584 0.023571936 0.21860614 0.073095016 -0.19824097 0.977424
0.1815705 0.008364256 -0.16009586 0.0026548167 -0.9999199 0.012373887
0.02528108 0.12361171 0.18789655 0.001966516 0.99905115 -0.043507263
0.28625697 0.12290677 -0.21604799 0.0038980974 0.99791294 0.06445565
-0.3627066 0.0152328275 0.106901795 -0.052447703 -0.9983191 0.024662456
0.270594 0.014511166 0.13731065 -0.007232205 -0.9999363 -0.00866644
-0.07382391 0.005716813 -0.19862129 -0.03268416 -0.8619715 -0.505902
-0.06278428 -0.10133856 0.0071398723 -0.08349364 0.9622508 0.25904098
-0.0061865915 0.078851566 0.22231904 0.026944086 -0.04186392 0.99876
-0.43346184 0.112156846 -0.01135525 -0.99886924 -0.042371467 0.02155915
0.22830738 0.08643216 -0.2139391 0.07580156 -0.3483065 -0.93431085
-0.01698837 0.01066391 -0.056481455 0.014901874 -0.9996 0.024038233
0.083880834 0.121668 0.095865734 0.007812003 0.9999364 0.008132418
-0.018001681 0.01307932 0.19203836 -0.39239836 -0.9095383 -0.13698032
-0.41055378 0.12504373 0.0525099 0.045697797 0.9989496 0.0033838928
0.4044638 0.014608042 -0.13151163 0.8131425 -0.5820049 -0.008338968
-0.15548898 0.007310632 -0.19660547 -0.008227662 -0.9750598 0.2217898
0.4052255 0.038879476 -0.07772646 0.9726544 -0.23180982 -0.014411124
0.067424804 0.12151374 -0.23570466 0.018985318 0.68213916 -0.73097587
0.35605973 0.12159889 0.14708461 -0.0070341257 0.99997497 -0.00076292036
-0.13648921 0.013347685 -0.16586259 0.09113046 -0.9938968 -0.062164046
0.03996649 0.0028901277 0.026436146 0.8934049 -0.08993213 0.44015896
-0.4233961 0.12599128 0.21503028 -0.1416553 0.9879239 -0.062770315
-0.34287015 0.009672986 -0.15835936 -0.08187163 -0.9923972 0.091896154
-0.3103133 0.124483824 -0.20491423 0.0019527113 0.99978817 0.020488214
0.053845197 0.07832039 -0.21789216 -0.0133621795 -0.20609856 -0.97844
0.003965553 0.013228844 0.18541996 -0.00842034 -0.98895234 -0.14799488
-0.22887708 -0.11448798 -0.0019914815 -0.26602426 -0.95694846 -0.1161068
0.05851254 0.010903917 -0.08781735 -0.030950516 -0.9987066 0.040337775
0.41090885 0.06342751 0.021008363 0.9958846 0.090416156 -0.006230357
-0.17316422 0.022283519 0.21231692 0.023202315 -0.42796406 0.9034979
0.23835045 0.008340252 -0.003076699 0.017448287 -0.98576814 0.16720274
-0.4086447 0.01639416 0.04442704 -0.3079671 -0.95135194 0.009261513
0.4214376 0.12561812 0.24010712 -0.008466502 0.88777703 0.46019602
-0.34573606 0.013733928 0.05951861 -0.027135013 -0.9996179 -0.0052775233
-0.2910756 0.014876681 -0.05326862 0.007927616 -0.9991235 0.04110164
-0.14402694 0.12386925 -0.14709778 -0.008970876 0.99985605 0.014402223
-0.27270472 0.09966711 -0.22137114 -0.0119554605 -0.9294668 -0.36871204
0.022286724 0.026121061 0.21684067 0.0080915885 -0.21477942 0.9766291
-0.3566727 0.121779874 0.061829995 0.010221351 0.9998007 0.017147461
0.050950617 0.017562937 0.1460909 0.21394491 -0.96456397 -0.15441473
-0.14277159 0.123025656 -0.10860907 -0.014632449 0.99956334 0.02567117
-0.2994891 0.01484025 0.031959757 0.035374667 -0.9992733 0.01419561
0.1028557 0.124272905 -0.2007735 0.007564352 0.9974595 0.07083399
-0.049008086 0.101055376 0.22813852 0.01712244 -0.9525774 0.3038143
-0.43398115 0.12015388 -0.025895633 -0.9604349 0.27822655 0.012442158
0.036756765 -0.0371444 -0.022881279 0.1377146 -0.35449317 -0.9248617
0.39687136 0.02404103 0.055615813 0.88500255 -0.4497667 0.120334744
-0.39328936 0.013693717 0.0178196 -0.17495714 -0.98199993 0.07117613
-0.05499721 0.01839227 0.20495121 -0.0058577266 -0.9432235 0.3321071
0.053602867 0.121708915 0.12755413 -0.0003661764 0.99990565 -0.013731615
0.35032827 0.12160425 0.022386048 0.027012292 0.99959207 0.009273559
0.39876273 0.12227325 0.008433704 -0.114327155 0.99344265 0.001015635
-0.33202082 0.12436971 0.18851691 0.006947763 0.99852765 -0.053799454
0.11402725 0.12160663 0.07334759 0.0045164903 0.9999753 0.00538622
0.25762862 0.014141988 0.03443915 0.06431689 -0.9978863 0.009288187
-0.33556885 0.015380246 0.14451255 0.027424948 -0.9996226 -0.0016320741
-0.32972077 0.012657267 -0.014299926 0.02379535 -0.99964875 -0.011668874
-0.39898953 0.077772774 0.21595575 -0.45818526 0.0365403 0.88810533
-0.3551508 0.014769517 0.102779314 -0.030544043 -0.9988694 0.036427274
-0.1346172 0.014912169 -0.092361785 -0.027649263 -0.9967118 0.076164745
0.34741014 0.12201628 0.17547968 -0.0035643023 0.99824834 -0.059054703
-0.31694427 0.12456092 0.19552913 0.0008686307 0.998712 -0.05073108
-0.16777205 0.121633165 0.07964395 -0.0027770342 0.99997646 0.0062712147
-0.11718522 0.08077738 0.22022699 0.008163126 0.003616189 0.9999601
-0.3881897 0.010470077 -0.12911792 0.032593127 -0.9990755 0.028034968
0.37496227 0.12261281 -0.16169631 -0.04531507 0.998913 -0.010928659
0.39754403 0.031388734 0.15941311 0.999857 0.012266312 -0.011640791
-0.20846826 0.12344859 -0.13776746 -0.0011136434 0.99977714 0.021082947
-0.40883785 0.12503749 0.027154207 0.05249405 0.9986212 9.1426504e-05
-0.078141704 0.01988676 0.13179821 0.053449623 -0.9979699 -0.034628045
-0.03958272 0.121781014 0.11877366 -0.00027465817 0.99999994 -0.00019836424
0.43319583 0.12027406 0.03347549 0.98567116 0.16850983 0.0075351144
0.42927128 0.12619185 0.1520598 0.31611198 0.94848067 -0.021390602
0.40538982 0.07859035 -0.18695779 0.912861 -0.28282398 0.29444087
-0.02143286 -0.02264729 -0.08834455 0.18823092 -0.9572361 0.21970011
-0.23058942 0.12232387 0.16939211 -0.0013563713 0.99877703 -0.049423736
-0.06444755 0.12409622 0.025641412 -0.014489175 0.9995395 0.026660081
-0.1829593 0.056690753 -0.21522298 0.0057746414 -0.24152808 -0.9703767
-0.04083215 0.12489142 0.20212026 0.0013099444 0.99823856 -0.059313066
0.17707367 0.013906077 0.055907734 0.0058543156 -0.99913657 -0.041132666
0.15151839 0.10515918 -0.23176897 0.01290554 -0.6368806 -0.7708544
-0.045925822 0.067691244 -0.2174486 -0.19849145 -0.10207919 -0.9747723
-0.36410785 0.014162558 0.01902516 0.01723467 -0.99954987 0.024555592
-0.3096613 0.10210089 -0.23093888 0.019683996 -0.9334373 -0.35820028
-0.42302734 0.10205245 -0.1961588 -0.24648587 -0.96914434 -0.0019815878
-0.18654872 0.1256396 0.22471465 0.00013727773 0.999626 -0.027348775
0.1884876 0.045599468 0.21378423 0.026402311 -0.16507839 0.985927
0.40645012 0.048876476 0.12623766 0.85813373 -0.5129046 0.023137242
-0.032915663 0.010668045 -0.20888937 -0.23031183 -0.40536672 -0.88466614
-0.17615178 0.015964655 -0.04229792 0.016962824 -0.9997083 -0.01719164
-0.16258153 -0.010025138 -0.008054203 0.24918379 -0.9635502 0.097357295
-0.26406154 0.12572406 0.22985347 -0.00076117466 0.99768686 0.0679729
-0.42912763 0.118037485 0.16670573 -0.99719703 -0.07355424 0.013702026
-0.071733996 0.12415835 -0.04879272 -0.0033569038 0.9999911 -0.0025481952
0.33038843 0.1242065 0.21060365 -0.0010951358 0.99681693 -0.07971676
0.28949678 0.12149061 0.074950874 -0.006286242 0.9999397 0.009002143
-0.22967224 0.12575307 0.2271546 0.0017689855 0.9994159 -0.03412922
-0.32086638 0.04439487 -0.20940788 0.07883416 -0.17357759 -0.9816598
0.39847383 0.010775515 -0.1945972 0.44276714 -0.84206945 -0.3080201
0.055515468 0.013922458 0.017939094 0.09207192 -0.99299806 0.074010804
0.41679707 0.082232475 0.11930214 0.8925934 -0.44649875 -0.06257768
-0.20985343 0.121539585 0.08077829 -0.002685327 0.99991816 0.0125111835
0.017752858 0.12421899 0.030988546 0.0010070608 0.9999808 0.0061033983
0.08746561 0.01596317 0.19877698 -0.0075640855 -0.97775126 0.20963109
-0.10116955 0.121777564 0.090337254 -0.0075366674 0.99984425 0.015958207
-0.08310503 0.12366209 0.18656078 -0.007407821 0.9989279 -0.045696806
0.01785989 0.12207887 0.09423162 0.0007778824 0.99959415 0.028476598
0.20713231 0.006842859 -0.17533867 -0.019579602 -0.98026645 0.19670844
0.29841372 0.048099775 0.21331729 -0.07285745 -0.2819478 0.95665944
0.05504376 0.011459896 -0.17157692 0.10646947 -0.99057114 -0.08621548
-0.16426997 0.12258212 -0.039393555 -0.015943406 0.9998728 0.00041193492
-0.0913371 0.014429699 -0.01758722 -0.016512867 -0.9992495 0.03503838
-0.15265782 -0.10392418 0.009612296 0.24798436 0.5612864 0.78959566
-0.11133396 0.015093576 -0.010495478 -0.024878427 -0.9996521 0.008755498
0.0115445405 0.011344019 -0.054351352 -0.007811778 -0.9999076 0.01112263
-0.32075435 0.010764132 -0.13494687 -0.028472856 -0.9989278 0.036505617
0.39053416 0.018177979 0.17314613 0.3679424 -0.9292039 0.034618113
-0.41945392 0.12514096 0.059103012 0.0010223262 0.9999876 0.004867493
-0.21439232 0.015651604 -0.04119045 0.004867066 -0.9998998 -0.0132890735
0.24044544 0.122741915 0.0010610227 0.0010831536 0.9997966 0.020137506
0.021960462 -0.09722589 0.029570041 0.10567512 0.9817869 0.1578835
-0.087527506 0.011089278 -0.15137532 -0.07214396 -0.9866499 -0.14600419
-0.43214247 0.114780106 0.033655573 -0.9966742 -0.054779362 0.060330298
0.16533852 0.123728655 -0.1157939 0.007980091 0.99996793 0.0007171401
-0.33824658 0.122037865 0.03138528 0.010726028 0.9999161 0.007262574
0.12565812 0.012766454 -0.2034818 0.003428748 -0.39848348 -0.9171691
-0.0011265767 0.007537174 -0.0936899 0.08716383 -0.9823506 0.16549885
-0.415481 0.025500033 -0.026674148 -0.9871682 -0.1596819 -0.000820933
-0.23359115 0.12138288 0.101715975 -0.00064086384 0.9999917 -0.004028287
-0.42549622 0.12483363 -0.20065087 -0.23681739 0.97140044 0.017282913
-0.10206972 0.12381765 -0.16656373 0.0029894307 0.999568 -0.02923846
0.0035284543 0.12445567 -0.026579391 0.0023498395 0.9999941 -0.0025176853
0.01559563 -0.02553972 -0.18778236 0.042480603 -0.936288 -0.3486548
0.17534278 0.12141169 0.1544801 0.008636081 0.99995434 -0.0040891687
-0.4173585 0.045979396 0.060107782 -0.9963663 -0.019262636 0.082964644
-0.14928831 0.015971309 0.031730566 0.042465687 -0.9989344 0.01807764
-0.07828886 0.014212399 -0.060878612 -0.027157746 -0.9954195 0.09166499
0.18623254 0.09531989 0.21708247 0.030948259 -0.38210693 0.9235998
0.1942055 0.12112602 0.11271185 0.004928514 0.9999848 -0.0024718863
-0.28413445 0.07424669 0.22002405 -0.0010673177 -0.038621653 0.99925333
-0.23078491 0.014020759 0.004700751 -0.007311645 -0.99828327 0.058112346
-0.32541788 0.014916057 -0.2025125 -0.015316947 -0.5225128 -0.8524938
0.14175394 0.036786854 0.21186785 -0.007359322 -0.2636109 0.96460104
0.13412197 0.009083148 -0.08348754 -0.012221369 -0.9999246 -0.0012053534
0.14168225 0.123850435 -0.112270445 0.0012359607 0.99999905 -0.00064086856
0.23834355 0.0031532422 -0.19114985 -0.010729248 -0.9973787 -0.07155875
0.39845794 0.12386996 -0.13595125 -0.08541453 0.99621403 0.016189085
0.06116431 0.017477904 0.15203422 0.004931383 -0.9853143 -0.17067936
0.07491518 0.018036773 0.12798417 -0.098152444 -0.9946681 0.031644944
-0.30011305 0.014067711 -0.011229085 0.042106185 -0.9990843 -0.0075919186
0.023237975 -0.0966518 -0.010551028 -0.009063318 0.9999556 0.002593879
0.41175362 0.062155817 0.06641983 0.9991792 0.03134632 -0.025659462
0.37545693 0.122315705 -0.18047471 -0.019579478 0.9993463 -0.030390887
0.031151894 -0.0099845845 -0.09190114 -0.94845605 -0.30839005 -0.072983764
-0.038420774 -0.023873068 -0.1806237 -0.5331391 -0.6079863 0.5883157
-0.036717616 0.020835595 0.13361157 -0.1896482 -0.98165894 -0.019472605
-0.41204795 0.12519184 -0.19165318 0.026841195 0.9994685 0.018499075
0.41146207 0.058290955 -0.018077912 0.975676 0.21917574 0.0042876387
0.24563962 0.023891922 -0.2072918 0.013539971 -0.035603415 -0.99927425
-0.30500212 0.053204753 0.22126023 0.01995361 0.0095649185 0.9997552
-0.07544018 0.12467634 -0.20943113 -4.572899e-05 0.998965 0.0454851
-0.044120982 0.02023774 0.09611409 -0.010540553 -0.9996899 0.022560751
-0.02332869 -0.018518094 -0.16554366 0.1696816 -0.8470637 0.5036776
-0.4215353 0.1255793 0.19814762 -0.06762953 0.9973377 -0.027270952
0.39793667 0.12434707 0.14012106 -0.06780431 0.9976702 -0.0075355032
0.40839013 0.12430693 0.08646406 -0.05142857 0.99864376 -0.008106667
0.2546919 0.12242789 -0.06820491 0.013990117 0.99984336 -0.010847299
0.42687348 0.09252169 0.1914012 0.9647799 -0.24936534 0.08376461
-0.1644679 0.011669869 -0.17333435 0.02783185 -0.99671483 -0.076058514
0.12588453 0.007683968 -0.17214431 -0.009732023 -0.99968314 0.023216518
-0.03498528 -0.03607978 0.00591565 -0.93202305 -0.27413446 0.23703046
-0.060515948 0.01380567 -0.011385119 -0.051662557 -0.997995 0.036562897
-0.04795404 0.12423863 -0.04757103 -0.0025329462 0.99999493 -0.001907339
-0.042941853 0.010925498 -0.09431893 -0.22139533 -0.9710457 0.08974645
0.0698306 0.0866052 -0.21931283 0.0002575911 -0.117870666 -0.9930289
-0.21531305 0.12202191 0.016737454 -0.0023955537 0.9999682 0.0076138936
0.39292532 0.0192912 0.17439878 0.5861333 -0.8093098 0.03828217
-0.032503743 0.12483351 0.20138839 0.0016906628 0.99819165 -0.06008707
0.048076145 0.017906457 0.20904914 0.3831597 -0.5050534 0.7733756
-0.30797195 0.015701627 0.14117555 0.011288379 -0.99972326 -0.020639429
-0.030579844 0.12387878 -0.10797567 -0.0063014748 0.9999357 0.009429325
-0.033415407 0.124323025 -0.14612834 -0.002410851 0.9999843 0.00505058
-0.016146215 0.12432636 -0.05249616 -0.001358013 0.9999858 -0.0051573976
-0.18528797 0.12223864 -0.003379413 -0.004516536 0.99998546 0.0029449034
-0.4300938 0.12007475 -0.23512977 -0.72017145 0.41442987 -0.55641806
0.26533324 0.011787682 -0.07062108 0.015538708 -0.999357 0.032312583
0.12519567 0.010915014 -0.032545928 -0.022986216 -0.99895537 -0.03949422
-0.38619712 0.124358095 -0.05725208 0.016202325 0.99984515 0.0068653915
0.398314 0.12461801 0.16129404 -0.056666516 0.99830556 -0.013222187
-0.41113696 0.12540354 -0.20064451 0.047475442 0.99850786 0.026982993
0.021249328 0.012841451 0.0660727 -0.009627602 -0.99834573 0.05668403
0.10984768 0.12414797 -0.15229829 0.006942535 0.9999691 -0.0036925129
0.23771846 0.013956261 0.035280876 -0.0024837577 -0.99862295 0.052402716
-0.03420185 0.0044753896 0.009707157 -0.9093491 0.29253855 0.2958132
0.28057495 0.014344128 0.12698466 0.008252781 -0.99973065 -0.021692153
0.4062358 0.047093194 -0.111732505 0.9921385 -0.12273051 -0.024464352
-0.15398894 0.011383627 -0.20225559 -0.0059375064 -0.44490302 -0.8955591
0.048941758 0.12382676 -0.11662608 -0.004821567 0.9999563 0.008010514
0.011504058 0.085655175 0.22180022 0.025570838 0.027644562 0.9992907
-0.418938 0.043016575 -0.05588196 -0.9777497 -0.2009179 -0.060311176
-0.23768856 0.057925485 -0.21495663 -0.022843055 -0.32855532 -0.94420844
-0.23616852 0.12283119 -0.11774929 -0.0006252392 0.9994068 0.03443391
-0.21707007 -0.115259886 0.0047671394 -0.15983988 -0.9464035 0.2806627
0.3477015 0.06427634 -0.21238458 -0.12588833 -0.016285643 -0.99191076
0.17372495 0.013875605 0.17509186 -0.019131882 -0.9982699 0.05559822
0.2776409 0.10070852 0.23027328 0.017296005 -0.95413387 0.29888022
0.19573267 0.12350021 -0.14143522 0.014035891 0.99984366 0.010755764
-0.119321376 0.015975768 0.010737681 0.010396072 -0.99899846 0.043520212
0.3983969 -0.02633175 -0.025516843 0.31014174 -0.14563802 -0.9394688
-0.40936795 0.047344673 0.15285036 -0.9841007 -0.15543254 0.08594514
0.062454306 0.12414929 -0.13683665 0.0021968046 0.9997902 0.02036621
-0.14352228 0.12567855 0.22743767 -0.00050331745 0.999558 -0.029726233
0.39817488 0.09665262 -0.22498982 -0.099053755 -0.5970373 -0.79607457
-0.29544243 0.016262375 0.11343209 0.03577325 -0.99933326 -0.007304087
0.037334327 -0.105434485 -0.026242549 0.46838474 0.40110305 -0.7872306
-0.42252982 0.09541561 -0.05564175 -0.9850555 -0.16881791 0.034149874
0.25467706 0.121234134 0.15970097 0.002059779 0.9999235 -0.01219084
0.036708936 -0.047955666 -0.0004510351 -0.08416365 -0.92291933 -0.375681
0.4248695 0.08448918 0.18692175 0.9654189 -0.2511951 0.069766596
-0.29024065 0.014946422 0.19705707 -0.0058889836 -0.9998457 -0.01655323
0.37295383 0.121170774 0.050336353 0.00024413645 0.9999829 -0.005844016
-0.2601395 -0.108575106 0.007767851 -0.044841755 -0.0140683 0.99889505
0.40285546 0.043010335 0.1266816 0.8461144 -0.5208556 0.1131363
-0.33532113 0.013504297 0.023817278 0.011630436 -0.9989676 0.043915186
-0.17341593 0.013899276 0.0032141567 0.025864355 -0.9970861 0.071765974
-0.41988686 0.07047149 -0.044681724 -0.99890286 0.03197666 0.034212906
-0.35189164 0.12514485 -0.22968958 0.0034330343 0.9999437 0.010039718
0.20902252 0.011225741 -0.03087934 -0.011001022 -0.9958052 -0.09083441
-0.04994399 0.12489554 -0.21497679 -0.0011438478 0.9995095 0.031295676
0.15433002 0.12202112 0.045493368 0.0038731652 0.9993376 0.036185123
-0.1954556 -0.006114959 -0.0010365641 -0.28768888 -0.2526176 0.923807
-0.1983353 0.014947035 0.028852679 -0.006863037 -0.9995022 0.03079216
-0.07558944 0.12389837 -0.061177865 -0.014918901 0.9997189 -0.018427435
0.01411877 -0.11582806 0.03838439 0.120584585 -0.8821348 0.45529938
0.14736229 0.10220486 -0.22900902 0.0058203368 -0.74210423 -0.6702592
0.4292077 0.12419857 -0.12075542 0.36096358 0.9325545 0.0068871514
-0.28331763 0.014488454 -0.00029509445 0.014555148 -0.9998807 0.0051721125
0.25788808 0.036749564 0.21079011 0.01957387 -0.103726335 0.99441326
-0.18759279 0.015297031 0.18282802 0.0021486671 -0.9986883 0.051156566
0.03683693 0.016364098 0.13254336 0.036838423 -0.9992727 -0.009850008
0.075922996 0.12241563 0.046759278 0.017608596 0.99913156 0.037763197
0.4043948 0.028954975 -0.08115244 0.9813024 -0.18924797 0.035082877
0.40779608 0.04730293 -0.05043204 0.9950934 -0.094823584 -0.02824209
0.42716622 0.12492213 0.08562073 0.0118396655 0.9999024 -0.007415048
0.14044686 0.012749229 0.042329106 -0.012319875 -0.9980165 0.06173643
0.09709114 0.09264709 -0.22085096 -0.0044175913 -0.15379399 -0.988093
0.34834236 0.014619736 -0.07493601 -0.05160632 -0.99825025 0.02886481
-0.028786164 -0.019876108 -0.16595212 0.17367437 -0.8382622 0.5168691
0.033863124 -0.10867627 0.035322614 0.6879915 0.10509813 0.7180683
0.09582903 0.013295431 0.019656293 -0.10118758 -0.99332374 0.05539853
0.424869 0.12628114 0.14702469 -0.10581759 0.9941029 -0.023708845
0.4215881 0.12472754 -0.0031014197 -0.04277677 0.99907994 -0.003064195
0.26873598 0.122215554 -0.113254145 0.013304327 0.9998995 0.004897579
0.41215202 0.09321634 -0.16320781 0.7192591 -0.68197936 -0.13255392
-0.14823718 0.017893827 0.10760285 0.02778801 -0.9995143 -0.014107524
0.11059393 0.12159144 0.078939326 0.0028380821 0.99998146 0.005386253
-0.40889773 0.062063865 -0.19828925 -0.99469876 -0.009918757 -0.10235216
0.06422269 0.12202547 0.082515396 0.009489883 0.99988574 0.0117631825
0.40717575 0.030525066 -0.12483187 0.97252554 0.21946228 0.07765543
-0.31191584 0.12584823 0.22510067 0.0038051812 0.9975054 -0.07048718
0.2429714 0.12122407 0.14434157 0.0018157929 0.99999833 7.629382e-05
0.016047256 -0.021844529 -0.030530028 -0.11154688 -0.13967381 -0.9838946
-0.10576519 0.06303004 0.21897456 -0.004765633 0.065683514 0.99782914
-0.16485775 0.123786844 -0.15377222 -0.008726912 0.99987215 0.013395504
0.2795822 0.013128107 0.011961944 0.08771645 -0.981825 0.16830173
0.04873577 0.12262804 0.052681044 0.019222666 0.9966587 0.079384744
-0.04792903 0.010868233 -0.1812896 -0.41190007 -0.7256756 0.55112004
0.4128335 0.07152421 0.09333111 0.99430484 -0.0938533 -0.050492045
0.09546718 0.044470828 -0.21125427 0.0034887856 -0.14250405 -0.9897881
-0.17777777 0.12240454 -0.049339682 -0.008162879 0.9999298 -0.008590095
-0.3978885 0.014015042 -0.18028127 -0.7888857 -0.5888415 -0.17585497
-0.20949827 0.017767984 0.09238143 0.018810011 -0.9989732 0.041217398
-0.064193 0.12572135 0.22780572 -0.0051265457 0.99992055 -0.01151947
0.34483162 0.12199725 -0.01760412 0.018551495 0.9998279 -0.00024409861
-0.17782506 -0.11936394 -0.011111644 -0.008979378 -0.9999533 0.003578019
0.18183678 0.011441983 0.02058813 0.0070207724 -0.9937653 0.111270905
-0.21068925 0.12357161 -0.17089896 -0.0012663538 0.9999007 -0.014036692
-0.035232782 -0.044251762 0.00028739055 -0.9985005 -0.05474262 -8.3797495e-05
-0.06707418 -0.014955647 -0.013338154 -0.72500116 -0.4942566 0.47967052
0.07172705 0.12207398 0.14597872 7.6286786e-05 0.9999061 -0.013701106
-0.015608315 0.0026980476 -0.07705903 0.27906364 0.94490904 0.17108597
-0.40725383 0.03625478 0.15187171 -0.9845281 -0.14756054 0.09450034
