ply
format ascii 1.0
element vertex 678
property float x
property float y
property float z
property float nx
property float ny
property float nz
end_header
0.1059623 0.12898122 0.10309422 -0.0010375705 -0.99997383 0.007156185
0.026663663 0.12900835 0.09744168 -0.00012206663 -0.99996984 0.0077664894
0.39811137 0.019298477 -0.22338648 0.9995453 -0.02052899 0.02208468
-0.34757936 -0.090226166 -0.2114126 0.9996175 -0.0027836638 0.027516326
-0.35679734 0.08034812 0.08997381 0.38101783 -0.91344464 -0.14298366
-0.09652246 0.13085222 -0.18057348 -0.0036869063 -0.99955076 -0.029743964
-0.39423782 -0.086693585 -0.22302014 -0.9994164 0.016660498 -0.029821148
0.39884615 0.12033522 -0.20010272 0.99924266 -0.004071011 0.038697477
-0.34761363 0.01827945 0.21058689 0.9998286 0.018482855 0.0010831883
-0.078158356 0.1675919 -0.021752054 -0.0010528438 0.99998796 0.004791202
-0.20738244 0.16769502 -0.1512478 0.0026244957 0.99999386 0.002304063
0.09825724 0.16788457 0.078806855 -0.0013885477 0.99999845 -0.0011138899
-0.38760987 0.09328249 0.0780137 -0.28183225 -0.9509426 -0.12758848
0.36838782 -0.15394937 -0.19283369 0.097145796 0.13390936 0.9862206
-0.39140943 0.16793947 -0.054280043 -0.017255073 0.9998484 -0.0023342408
0.31388062 0.14127886 -0.2509392 -0.013561261 -0.17335874 -0.9847654
0.367831 -0.16840482 -0.2331184 -0.024075976 -0.99958384 0.015885416
-0.2948648 0.12901391 -0.045317557 0.0043029226 -0.99998707 -0.0027160293
-0.38064533 0.014632386 0.2544629 0.043517657 -0.015013973 0.9989398
-0.18267274 0.167218 0.015006938 -0.004745149 0.99992955 -0.01087875
-0.39147216 -0.16096985 0.19434208 -0.4584919 -0.0072410475 -0.8886691
0.16486715 0.16780773 0.12765989 0.0019683777 0.99999696 -0.001480098
-0.3949407 0.04325881 0.19565396 -0.98966855 -0.0042962753 -0.14330985
0.35195556 0.09138589 -0.08414926 -0.90093046 -0.4116454 0.13737687
-0.24176739 0.1670332 0.08428205 0.0066068885 0.9999747 -0.0026244454
-0.30065215 0.1680533 -0.15954667 0.001815792 0.9999979 0.0009307842
0.084329925 0.16786642 0.10556374 -0.0014953589 0.9999984 0.0009460434
-0.34729862 0.10142136 -0.101736724 0.9987469 -0.01742656 -0.046915315
-0.0059482343 0.13073863 -0.16433442 0.00892596 -0.99995166 0.004134932
-0.27526566 0.16835131 -0.21192905 0.0056751245 0.99979824 0.019267961
-0.12406598 0.1517222 -0.2530254 0.011506042 -0.14352353 -0.98958004
-0.35174584 0.09589022 0.04238113 0.9172651 -0.3905963 -0.07784073
-0.34626648 0.06303888 -0.19946751 0.9997599 0.021105466 -0.005888479
-0.010512217 0.16761531 0.16591495 -0.0029449242 0.9999925 0.0025024225
-0.28398523 0.16745745 0.06731944 0.0039367173 0.99998724 0.003158529
-0.3172372 0.16779667 -0.073347785 0.0041350964 0.9999914 0.00032043183
-0.30927655 0.16346315 0.25632837 -0.0059378888 0.35899028 0.9333224
0.38430178 0.1278145 -0.25374326 0.0049171178 -0.10372994 -0.9945933
0.40018183 -0.037228595 0.21438485 0.99793607 0.025581857 -0.058899183
-0.26889867 0.1299188 0.248368 0.009597677 -0.9921031 0.12505743
-0.350823 0.083571605 0.16469397 0.9801476 -0.19209315 -0.04910011
-0.14567123 0.12862557 -0.022963643 0.00015249931 -0.99941945 -0.034068346
0.008556248 0.16764961 -0.070846155 -0.0019073449 0.99999803 -0.000442504
-0.1282105 0.16657364 -0.2528571 -0.00013571414 0.6841663 -0.72932607
-0.098534845 0.13001083 0.16652769 -0.0026391798 -0.9997762 0.020991394
-0.09436178 0.1294485 0.13170008 -0.00012206729 -0.99997526 0.0070341276
-0.2381912 0.1675758 0.20933855 0.0030363833 0.99996185 -0.008193657
-0.39396894 0.020558577 -0.22487871 -0.9986192 -0.016731016 0.049796868
0.36268237 0.086883485 -0.08177025 0.46996897 -0.87830716 0.087782465
-0.19368546 0.1671095 0.00823594 -0.0037535562 0.99997175 -0.006515319
-0.104799494 0.16819742 -0.22305807 -0.0020597305 0.9999 0.013990911
-0.31261525 0.16760483 0.1944018 0.00051879796 0.9999983 -0.001800534
-0.39337415 -0.053760417 0.19623007 -0.8646961 0.001464558 -0.50229335
-0.39444655 0.13455915 0.24844159 -0.9714119 -0.21336347 0.10409149
-0.2561882 0.12906568 -0.06557082 -0.0015258502 -0.99998116 -0.005935557
0.37732774 0.092329346 -0.11155488 -0.76902246 -0.63911873 0.011478314
-0.24743989 0.16714035 0.11121417 0.006500104 0.9999784 0.000961283
0.3486432 -0.114203185 -0.20315847 -0.99998957 0.0024413809 0.0038604334
-0.20560527 0.16727385 0.18912499 -0.0029600637 0.99995226 -0.009307417
0.17756526 0.16794887 0.24386698 0.0018310192 0.9999806 0.0059508123
0.29932395 0.16790363 -0.11895253 -0.0010528491 0.999993 0.0035857905
0.3765017 0.09731893 0.044213273 0.45843002 -0.8885918 -0.015701132
-0.21027955 0.13076024 0.23187861 0.00039535883 -0.9965476 -0.083022945
-0.3503944 0.09834662 0.046288576 0.925401 -0.3749981 -0.054858137
-0.3483439 0.09069692 -0.13010249 0.99143374 -0.13029814 0.0090314625
0.34671572 0.10914264 0.014931695 -0.9763511 -0.16474137 0.1399959
-0.20874222 0.16759565 0.21535744 -9.154346e-05 0.9998987 -0.014235008
-0.26245704 0.12848875 -0.020097876 0.0131800715 -0.9962735 -0.085237205
-0.32009262 0.16958621 -0.24212606 0.0077359737 0.99996996 -0.00048826658
-0.15328968 0.12864304 0.058254432 0.0001983585 -0.9999709 0.0076291724
0.11397447 0.12992758 0.23157233 -0.0049503506 -0.99823445 -0.059190962
-0.2940216 0.13008243 0.24976213 -0.0026623 -0.980205 0.19796742
0.2704679 0.16774112 0.10514662 0.0013427718 0.99999875 0.00086974987
0.29218823 0.12948826 0.13767172 0.0022888058 -0.99999446 0.0024108754
-0.26590174 0.12940964 -0.09475233 -3.051372e-05 -0.9998736 -0.015897648
-0.395655 0.09980171 0.1623531 -0.9859838 -0.16678044 -0.0045059533
-0.0038593702 0.12964712 -0.2151733 -0.00065612764 -0.9999995 -0.00070190395
-0.38684535 0.16735409 0.19799143 -0.0038146677 0.99999225 0.0009918136
-0.3958915 0.106678925 0.10610437 -0.9896924 -0.14193152 -0.019088306
-0.39474937 0.043063615 0.23894466 -0.9988237 0.005570527 0.048168674
-0.053235676 0.1289757 0.091671534 -0.0002593782 -0.99991816 0.012785819
0.09022854 0.13023975 0.19400895 -0.004792519 -0.9970873 0.07611737
-0.35993117 -0.1502544 0.25641322 0.10923076 0.14816567 0.9829118
0.15631609 0.1289864 0.10349299 -0.0025023834 -0.9999769 0.0063169925
-0.35962155 0.08134688 0.25524792 0.10750619 -0.025887018 0.99386734
0.1994346 0.16792062 0.010165039 0.0007019028 0.99999785 0.001937862
-0.04846843 0.1677687 -0.16680896 0.00042724135 0.9999889 0.004684396
-0.19761324 0.1324542 -0.18622142 -0.0061641647 -0.99993736 -0.009337794
-0.17666292 0.16849874 -0.24629954 0.0032039904 0.99988914 -0.014540014
0.39876884 -0.12650014 -0.21113443 0.99708945 -0.026853377 0.07135543
-0.38984716 0.015422046 -0.1940047 -0.7037784 -0.08237738 0.70562726
-0.30104625 0.13284989 -0.24707717 -0.004891445 -0.9773345 -0.21164446
-0.086452305 0.12945254 -0.12902015 -0.0037227839 -0.99990314 -0.013411176
-0.010359412 0.13078877 -0.16957182 0.0054758936 -0.9996327 -0.026540542
0.20923324 0.16776791 0.115603335 0.00012207027 0.99999964 0.0008239743
0.32811263 0.12979051 0.1436247 -0.0039669154 -0.99990684 -0.013060307
0.37609786 0.016985778 -0.25400674 -0.013853341 -0.006682559 -0.9998817
-0.24213293 0.16753563 -0.10804174 0.0066677546 0.9999496 0.0075069456
0.21914366 0.1679385 -0.11362607 0.00085449184 0.9999996 0.0003662108
0.30058402 0.1678426 -0.08185355 0.00051879877 0.9999999 6.103515e-05
-0.18964395 0.13057521 0.18592606 0.013567494 -0.9990554 0.04128177
-0.18021227 0.16677482 -0.06634513 -0.0048979004 0.9999651 -0.006774666
0.19203757 0.16777557 0.07973387 -4.577634e-05 0.99999946 -0.0010223383
0.38052142 0.16830236 -0.22401452 -0.003463508 0.9999316 0.011168669
0.40184724 0.1431137 0.095491394 0.98471934 -0.174147 0.0007963581
0.15463045 0.16769789 0.20483148 0.0012512198 0.9999992 -4.577633e-05
0.19874448 0.12938578 0.18646058 -0.005057184 -0.99827594 0.0584775
-0.34726262 0.11959171 -0.21191922 0.9988827 0.04238728 0.020896427
-0.39490098 -0.13715748 -0.24630411 -0.9999423 0.003036324 -0.010306717
0.21988226 0.12902944 -0.11346207 -0.0006102498 -0.99983335 -0.01824647
-0.3959117 0.105316125 0.11704194 -0.9918138 -0.126383 -0.018243888
-0.37825286 0.16789785 0.0266871 0.004898011 0.9999877 0.00074767147
-0.21694168 0.12903076 -0.07987146 -0.002944823 -0.9999581 -0.008666629
-0.37911582 0.10024752 -0.101299375 -0.4052633 -0.91106385 -0.07565913
-0.18253054 0.16705805 -0.02038827 -0.0043639624 0.99998826 0.0021056882
0.39825568 0.021937903 0.20540494 0.9967545 0.0067985426 -0.08021367
0.12514953 0.1683791 -0.241369 0.003905937 0.9999199 0.012038221
0.40156612 0.13710459 0.048051424 0.98783857 -0.1553446 0.006556851
0.39656433 0.118687406 0.216244 0.9985396 -0.037268493 0.03911211
-0.16162433 0.16786553 0.23790652 0.00028990104 0.999945 -0.010482212
0.017042108 0.12857957 -0.031093104 -0.00187662 -0.9998875 -0.014875647
-0.15297192 0.13005401 -0.23817654 -0.0057122256 -0.9903609 -0.13839301
-0.39489216 -0.13279657 -0.24119326 -0.99997026 -0.0075757634 0.0014648002
-0.38115045 0.16790897 0.01817221 0.0021972596 0.9999972 -0.0009307835
-0.3003144 0.13047852 -0.12649986 0.0041329754 -0.9994785 -0.032026745
0.07282025 0.16784933 0.008849238 -0.0029754501 0.99999535 -0.0007324185
0.024782378 0.16849448 -0.23677342 -0.00039659446 0.9996621 0.02599219
0.26193666 0.1677629 0.094863065 0.0012969958 0.99999905 0.00047302202
-0.29547992 0.12989652 0.23587334 0.009537256 -0.99211687 -0.124953195
0.0009862375 0.12863506 -0.078060776 0.00080867973 -0.99995536 -0.009414253
0.17246498 0.16825283 -0.23811719 0.0005950627 0.9999494 0.010039775
-0.38209906 -0.11860048 0.25529587 -0.057719532 0.0456978 0.9972864
-0.01034094 0.16819918 -0.21929285 -0.00097639894 0.9998325 0.018276967
-0.17160338 0.15238772 -0.25339493 -0.0012899443 -0.10413644 -0.9945622
0.2547479 0.12869735 0.047707442 -0.00024414057 -0.99999976 0.00065612776
-0.06600164 0.13035889 0.23441876 -0.004558801 -0.9958853 -0.0905074
-0.34560025 0.123524114 -0.032296587 0.9763952 -0.19163685 -0.09963793
0.36647028 0.16769028 -0.0029517142 -0.00051879877 0.9999999 -4.5776364e-05
0.37621883 0.0034455233 0.25481784 -0.06191314 0.042330388 0.99718344
-0.39365774 0.07882163 0.18712193 -0.957849 -0.053675853 -0.28221294
-0.061753325 0.16744958 0.16312121 -0.0018920721 0.99999064 0.003890955
-0.21872164 0.16723765 0.0489333 0.005828311 0.99990624 0.012388975
-0.07164801 0.12911554 0.107655965 -0.00053401483 -0.9999199 0.012648523
0.19916803 0.13825446 0.25397268 0.0016680183 -0.111393295 0.99377495
-0.060824476 0.1676374 -0.03272826 -0.0020294145 0.99999785 0.00033569263
-0.39465997 -0.056487236 0.21169686 -0.99969816 -0.009327933 -0.022728734
0.1072707 0.12905858 -0.104080625 -1.5257533e-05 -0.9999177 -0.0128315855
0.13795534 0.13013801 0.2256689 -0.0013268613 -0.99950784 -0.031341378
0.02730424 0.16776732 0.051959854 -0.0018005304 0.99999624 0.0020599288
0.35414487 0.16797219 -0.1451796 -0.0050048055 0.99998456 0.00242611
-0.39406314 0.09904368 0.089150876 -0.9438304 -0.3295471 -0.024144465
0.35010606 0.021855712 0.24798907 -0.99845964 -0.008958347 0.054755613
0.24067438 0.12603925 -0.011156139 0.053045943 -0.9834283 -0.17336345
0.09311088 0.12830293 0.016659169 0.0024229505 -0.99868226 0.051262926
-0.099151984 0.16749534 0.011832916 -0.0014953524 0.99999404 -0.0031127743
0.19875017 0.12857868 -0.031446144 -0.004073108 -0.99975735 -0.021646969
0.05912829 0.12860917 0.06671546 -0.0009307157 -0.9999243 0.012267138
-0.1091367 0.1675256 -0.055175234 -0.0035857868 0.999992 -0.0017700054
0.3537518 -0.13885957 0.1939831 -0.39632124 0.21568768 -0.8924171
-0.3807048 0.09599908 0.026194695 -0.27933893 -0.95643306 -0.08488518
-0.11874936 0.12934007 0.12232079 -0.0010375065 -0.99991214 0.013212951
0.25584063 0.13009615 -0.23808733 0.0042847022 -0.9992962 -0.037266236
-0.39367864 0.03855479 -0.19761787 -0.9979883 0.00072333444 0.063394554
-0.34554628 0.12812936 0.18058941 0.33652738 -0.9387357 0.07432708
0.27316442 0.12893252 -0.10760545 -0.0016478567 -0.99994385 -0.010466942
-0.02674706 0.13103952 -0.18462329 0.0006101443 -0.9996604 -0.02605316
0.34239227 0.12786277 0.09214738 -0.46428 -0.8856023 0.012355108
-0.25511587 0.12977147 0.16591461 0.0035857488 -0.9999814 -0.004928497
0.09872462 0.12877056 0.084519416 -0.004729371 -0.9998195 0.018398779
-0.37818363 0.09387894 0.008741172 -0.29457402 -0.9463335 0.13296263
-0.14774333 0.16774347 -0.17240238 -0.00041198227 0.9999878 0.004928529
0.19831924 0.12872632 0.084208496 0.0016326779 -0.9999923 0.0035705292
0.39769453 0.090871535 0.20976841 0.9985682 0.038564697 0.037071478
0.115071766 0.16787069 0.1543428 0.00028991603 0.9999967 0.0025329506
0.3310272 0.12991802 -0.17005798 -0.022561235 -0.9997114 0.008252623
-0.3949787 0.13148524 0.19695558 -0.89675874 -0.42792115 0.11272629
0.008401703 0.16765568 0.16574325 -0.0017547478 0.99999267 0.003402685
-0.39443454 0.10318948 0.044951327 -0.94522804 -0.32614088 -0.013269193
0.37424383 0.08863303 -0.25427505 -0.01918362 -0.00898541 -0.9997756
0.16320786 0.13099161 -0.18398827 -0.015510115 -0.9984979 -0.052548513
0.39828473 0.11788437 0.012150005 0.9988738 -0.047447115 0.00016765765
0.37814957 -0.0028517572 -0.2540099 -0.0064694877 0.0056608017 -0.99996305
-0.37439677 0.04466831 0.18257195 -0.32557997 -0.20271242 -0.92352873
-0.3525564 0.06252743 -0.1870026 0.43193415 -0.15752399 0.88804233
-0.112613484 0.13125816 -0.19054344 -0.012030666 -0.99802744 0.06161528
0.25542632 0.16768204 0.23518483 0.004119279 0.9998558 -0.016477115
0.32132405 0.12927547 0.16367488 0.0030962417 -0.9995827 -0.02872031
0.30116343 0.16789109 -0.11470922 -0.0008392297 0.9999956 0.0028381222
0.23785803 0.16773179 0.23409516 0.0043635964 0.99990433 -0.013121303
-0.23178591 0.12984504 0.17193861 0.00074759976 -0.99989176 0.014692623
-0.16156107 0.12969306 0.15545726 0.0016631795 -0.99998283 0.005615138
-0.28733146 0.16792221 -0.1323829 0.0033110867 0.99997866 0.005630373
0.34874573 0.10020846 -0.15226123 -0.99575317 -0.03742279 -0.08411392
-0.299699 0.16803885 -0.15140627 0.002655014 0.9999942 0.0021209593
-0.058555197 0.16755712 0.03463609 -0.0007171628 0.9999996 0.00057983375
-0.13490441 0.16761176 -0.1364469 -0.0020446575 0.9999901 0.0039519873
0.27712384 0.16791156 -0.031043865 0.0015563946 0.9999988 -0.00018310525
0.0031229388 0.13068338 0.19114216 -0.012430696 -0.9951367 0.09771598
0.117671266 0.16795212 -0.11425514 -0.00065612776 0.9999997 -0.00032043448
0.35103887 0.008869391 0.23147596 -0.9992045 -0.01588701 -0.036576714
0.39879158 -0.14225808 -0.20775564 0.99576277 0.005849742 0.09177257
0.32784158 0.12843274 0.23432156 -0.024822202 -0.99923086 -0.030356882
-0.099523276 0.16316587 -0.253672 -0.00169737 0.068381935 -0.9976577
-0.12859891 0.12989804 0.164137 0.007109517 -0.99984837 0.015897246
0.22472131 0.16819052 -0.23020673 0.000335681 0.99996316 0.008575124
0.3787969 0.090922676 -0.098567575 -0.81462383 -0.5726332 0.092082724
0.38121378 0.16794023 -0.09094216 -0.009887166 0.99994653 0.0030210786
0.21352582 0.16821754 -0.23406482 -0.0007629159 0.99996907 0.007827517
0.35398805 0.15717134 -0.256026 -0.05964379 -0.16407049 -0.9846438
-0.36914614 0.09341679 0.020021308 -0.22732961 -0.96528924 0.12860017
0.08722032 0.16789061 -0.08484662 -0.0014190648 0.9999982 0.0012359597
-0.26783782 0.12927744 -0.08634035 0.003524443 -0.9999043 -0.013380677
-0.36002028 -0.16811375 -0.23259154 0.03508087 -0.999374 0.004574771
-0.39227852 -0.16942357 0.234323 -0.37305087 -0.9252608 -0.06874229
0.17505215 0.1302594 0.22291036 0.0011288741 -0.9997554 -0.022089321
-0.3216003 0.1676229 0.20673098 0.0007476804 0.9999996 -0.0005035398
-0.2469463 0.16743352 0.043341506 0.0037993968 0.99998903 0.0027312932
-0.119225055 0.16747585 -0.014002385 -0.0017852603 0.99998987 0.00413509
-0.29758927 0.13023427 -0.118001014 0.010795542 -0.9992891 -0.036122374
-0.3501184 -0.09042899 -0.2520527 0.24730377 0.038708754 -0.9681645
-0.37512445 -0.08369952 -0.19650729 -0.03824071 -0.11413894 0.99272853
0.4012477 0.13611728 -0.14905888 0.9996593 -0.024268461 -0.009609762
-0.19313423 0.12829103 0.0051823957 -0.0045005516 -0.9998242 0.018200535
0.388786 0.09367954 -0.06863473 -0.39722493 -0.9177049 -0.0054892013
0.22270054 0.12905088 0.16903776 0.0011596668 -0.999999 0.0008392325
0.09988503 0.16795649 -0.17150496 -0.00041198704 0.99999934 0.0010681145
0.04037832 0.12852289 0.03613028 0.001342772 -0.9999989 -0.00057983334
-0.27583763 0.16760556 -0.017834388 0.0044249897 0.99998665 0.002685511
0.34766498 0.16767375 0.015401521 0.005172634 0.9999815 0.0032042866
0.14374936 0.13460854 0.25353014 -0.0013058641 -0.3669762 0.9302294
-0.39534146 0.039457045 0.21592964 -0.99989814 -0.0016401528 0.0141739715
0.34469607 0.11740814 -0.24732631 -0.9954487 0.0072149374 0.095024526
0.37623143 -0.14258139 -0.2568941 0.006834102 0.022142185 -0.9997315
-0.33000615 0.16774125 0.0490162 0.0021056866 0.99998754 0.004531804
0.29959902 0.16723888 0.21823445 0.010787254 0.9999342 -0.003905993
0.3406272 0.16783608 -0.09355966 0.0013427678 0.9999958 0.0025634659
0.28741866 0.12947014 0.13718602 0.00433345 -0.9999894 0.0015258627
0.22337429 0.12864822 -0.04962708 0.0018310378 -0.99999076 0.0038909554
0.34253627 0.16814762 -0.21475852 0.0024718984 0.9999897 0.003814658
0.27319607 0.16763704 0.1551643 0.0015563725 0.9999846 0.0053252354
0.15751512 0.14238845 0.25457785 -0.003227694 -0.17890432 0.9838612
-0.09677264 0.16747476 0.21793535 -0.0028060966 0.9994584 -0.032788627
0.06680617 0.1310875 0.21469472 -0.0019167678 -0.99696267 -0.077857286
0.3479809 0.12554139 0.18515971 -0.96815753 -0.24819969 0.03267768
0.34579596 0.10803344 -0.23448987 -0.99198616 -0.017891351 0.125073
-0.13529532 0.1314924 -0.18192188 -0.022452869 -0.99828434 -0.054075766
-0.09244202 0.16749078 -0.0032226667 -0.0016021634 0.9999941 0.0030212223
0.38996354 0.023596376 -0.25430128 0.022157103 -0.008740805 -0.9997163
-0.36163718 0.015737157 0.25372553 0.055403043 -0.016893588 0.9983211
0.33967057 0.12837173 -0.123294055 -0.17686145 -0.9840217 -0.020525478
-0.19190262 0.16716796 0.16867498 0.00021362297 0.99999964 0.0008239743
-0.12507042 0.12844354 0.016530786 0.00024406357 -0.9996844 0.025123293
-0.110112146 0.12880355 -0.077049054 -0.0032957979 -0.9999695 -0.007079862
0.07412737 0.16766115 0.18238623 -0.0023497916 0.9999736 0.0068815323
0.30306566 0.1672706 0.19237515 0.0071558496 0.999927 0.009734397
-0.23090422 0.16726907 0.014651677 0.010527739 0.9999216 -0.0067743715
-0.3923821 0.04058202 -0.19443479 -0.88423043 -0.02699679 0.46627
-0.1912988 0.16683835 -0.05790745 0.0006560826 0.9999309 -0.011733199
-0.10802312 0.16751449 -0.063861616 -0.0032195817 0.9999929 -0.0019378525
-0.07930413 0.1303768 -0.16521692 0.0024247319 -0.9994166 -0.034068245
-0.21623915 0.12973362 0.13803627 -0.008680962 -0.9998515 0.014890366
0.32742056 0.16825493 -0.22735074 -0.0008544106 0.9999045 0.013792628
0.402675 0.1473506 0.13211471 0.99334055 -0.11510358 -0.005077653
-0.34999132 0.094935946 0.0017655324 0.86687607 -0.45267078 0.20884205
0.14325322 0.12850766 0.042609073 0.0007171561 -0.9999903 -0.0043487125
-0.047922123 0.16757351 -0.08981463 -0.0008850094 0.9999996 -0.00013732904
-0.3830871 -0.17058034 0.21268865 -0.020684214 -0.9982037 -0.05622664
-0.22757564 0.16757412 -0.12216228 0.004760487 0.99994636 0.009200556
-0.23672636 0.12913984 -0.08211814 -0.004119211 -0.99983925 -0.017453248
0.014066247 0.12958936 0.1684944 -0.0058436566 -0.9999214 0.011092268
0.07924919 0.12911761 -0.10719872 -0.0010375028 -0.9999085 -0.0134875355
0.32794145 0.16729908 0.17684473 0.006942469 0.9999597 0.005691299
-0.24529104 0.16735467 0.17710051 0.009307392 0.9999496 -0.003768731
-0.00696494 0.16771176 0.11331631 -0.0029296728 0.999995 -0.0012206971
0.35012263 0.099754386 -0.17365839 -0.9909311 -0.13380049 0.012368495
0.041152433 0.16778734 0.07541272 -0.0017394973 0.9999973 -0.0015258748
0.18005414 0.16797696 -0.02577058 0.000106811516 0.99999994 0.00030517575
-0.196648 0.16669184 -0.07494925 0.00036620843 0.99999315 -0.0036926016
0.019195203 0.12943022 0.1479835 -0.004897328 -0.99984825 0.016721094
-0.022076324 0.1278138 0.00845893 -0.003922413 -0.9963537 0.08522887
-0.33438474 0.1292544 0.094323315 0.0073691104 -0.99987996 0.013624463
-0.40189904 0.14769068 -0.016840933 -0.9967108 -0.08030901 -0.010866544
-0.023499181 0.16751924 0.20393744 -0.0026245024 0.9999965 -0.00035095093
-0.15596047 0.16715822 -0.05339728 -0.015499947 0.9998076 -0.012021612
-0.39637432 -0.12580487 0.24322821 -0.9997244 0.012905378 0.019609768
-0.14936008 0.16719621 -0.061051153 -0.018016927 0.99979454 -0.009290693
0.3980499 0.12042281 0.23714103 0.9985544 -0.053298086 0.006963186
-0.30861443 0.12908913 -0.07003919 -0.00013732818 -0.9999933 -0.0036468261
0.395258 0.106661856 -0.16010147 0.9143617 -0.40480486 0.008706081
-0.12637752 0.12882756 -0.030456629 -0.000488266 -0.99996877 -0.007888547
-0.36950877 0.06907157 -0.18654466 -0.14364505 -0.12184092 0.98210025
0.23877782 0.1286784 0.044067737 0.001815792 -0.9999979 -0.0008850079
0.13227287 0.12963022 0.24179824 0.008322588 -0.99895453 0.044951122
0.36497486 -0.10348599 0.25787613 -0.024206234 0.013986841 0.9996092
-0.38010752 0.1678604 0.10685658 0.0055235974 0.99998474 -0.00012206845
0.09117425 0.16791709 -0.05669853 -0.0020904483 0.99999726 -0.0010375949
-0.13982321 0.16846186 -0.2409082 -0.0021352365 0.9995347 0.03042712
-0.16251674 0.12860847 0.026547447 -0.0024411709 -0.99990356 0.013670556
-0.34743488 -0.060157184 -0.22853045 0.99939716 0.005627099 0.034258205
0.21419947 0.12922764 0.18415281 -0.0014331589 -0.99918616 0.040311404
0.18258381 0.14154498 0.25456637 -0.005021858 -0.18658826 0.98242533
0.05870338 0.16808285 -0.20871584 -0.00053402316 0.99993545 0.011351806
0.20834237 0.13027026 0.2258642 0.0024716516 -0.9998899 -0.014631568
-0.396022 0.11738391 0.03531491 -0.9989228 0.04424855 0.013969616
0.3538269 0.1673571 0.10222741 0.0018005158 0.9999882 0.0045165485
-0.11413174 0.16752087 -0.046573162 -0.0030517413 0.9999946 -0.001251214
0.40042448 -0.064593315 0.21618707 0.9991406 -0.033318892 -0.024656257
-0.225272 0.12977797 0.1601251 -0.0031890173 -0.9999782 -0.005782955
-0.3449162 -0.13270561 0.2328879 0.9988234 0.0008687276 -0.048488718
0.13512486 0.16785051 0.1473992 0.0017852737 0.9999974 0.0014343224
-0.37389326 -0.14254397 0.1916458 -0.02060657 -0.018883001 -0.99960935
0.20767917 0.16777469 0.09996062 0.00050353975 0.9999994 0.0009918207
0.39875346 0.0034127813 0.2356362 0.9992521 0.029976342 0.024426298
0.13130647 0.1298537 -0.13185358 -0.0031868026 -0.99928373 -0.03770796
0.40018216 0.13386251 0.11278873 0.94003683 -0.34063774 -0.017225241
-0.091276616 0.12875964 -0.0502286 -0.0026397558 -0.99999446 0.0020294078
0.37800294 0.16793215 -0.095163696 -0.006118631 0.9999766 0.0030669447
0.28154296 0.16789249 -0.11187461 0.0008392331 0.99999964 0.00024414054
0.27722496 0.12858228 -0.054815657 -0.0022582903 -0.9999954 0.0019988923
0.26726988 0.16772866 0.11647193 0.0015563901 0.9999959 0.0024108787
0.11189761 0.16790006 0.13264388 0.0010528559 0.9999994 -0.00035095194
0.20732476 0.1677682 0.12732488 0.00041198707 0.99999946 -0.0009460444
0.30423728 0.12901305 -0.11369654 -0.0032345918 -0.9999161 -0.012541672
-0.384639 -0.16863076 -0.2365195 -0.0020370376 -0.9999947 -0.0025482043
0.12817588 0.1285608 0.02472084 0.0013884292 -0.99991316 0.013106162
-0.18063201 0.12896088 -0.08279993 -0.0027006245 -0.99993294 -0.011260231
0.31486464 0.16543235 -0.25416383 -0.0008775416 0.12963408 -0.9915615
-0.009542572 0.12973112 0.16883858 -0.0043637394 -0.9999371 0.010329551
0.39085084 0.100092374 -0.15122487 0.5249668 -0.8492901 0.055824183
-0.39582944 0.1246402 -0.017893422 -0.996307 -0.07187713 -0.046967935
-0.21792993 0.16697507 0.07835662 0.001602148 0.9999845 -0.005325235
0.2677203 0.12954734 0.2234427 -0.024391348 -0.99969435 -0.004027089
-0.37992513 0.09799946 0.25683567 0.021601154 0.0048205964 0.9997551
0.295499 0.12999876 -0.14411694 -0.009990675 -0.9996166 -0.025823226
-0.028450776 0.12466505 -0.0043223593 -0.20910484 0.7939665 0.57086986
0.24679457 0.1303532 -0.19427863 -0.00027432787 -0.9987973 0.04902849
0.39767653 0.06065303 -0.20183481 0.9919759 -0.016044533 0.12540467
0.18961349 0.16792078 0.01382786 0.000564574 0.9999978 0.001998897
0.18916634 0.16777216 0.15330967 0.0007476804 0.99999964 0.00030517566
-0.19378982 0.12817761 -0.00011314009 -0.002730281 -0.9996185 0.027485847
-0.36192298 -0.049487907 -0.19430482 -0.00237261 0.010268595 0.99994445
-0.060641345 0.16779675 0.22810578 -0.002242876 0.999926 -0.011962005
-0.1913498 0.12919018 0.09841107 -0.0066667413 -0.99979764 0.018978093
-0.24179004 0.16732167 0.17726532 0.0099482 0.99994665 -0.0027922094
-0.3773448 0.09633335 -0.1494667 -0.5430928 -0.8367334 0.07019593
-0.2330997 0.130305 0.18838589 0.0028964756 -0.99907064 0.043005038
-0.048207916 0.1289472 -0.10338924 -0.00021360353 -0.9999086 -0.013518052
0.2781817 0.12942193 0.19621497 -0.011339768 -0.998875 0.046044942
-0.18470325 0.12873478 0.040919434 -0.0036468152 -0.9999903 -0.002456641
-0.3995349 0.16255063 -0.21925473 -0.97984296 0.19553949 0.04089158
0.0027982013 0.16831358 -0.22561428 -0.0005187333 0.9998737 0.015882393
0.1592176 0.15026161 -0.2532032 -0.0062763793 -0.31891596 -0.94776225
0.2448706 0.12875722 0.06958902 0.003433051 -0.9999486 0.009536253
-0.196012 0.16785242 -0.1917783 0.0014495817 0.99999774 0.001556393
0.041703768 0.16759516 0.20009555 -0.0014953517 0.99999356 -0.00326536
-0.15873912 0.12864843 0.030450812 -0.0015410935 -0.99997133 0.0074155587
0.34772205 0.10166002 0.005631699 -0.9335508 -0.30746093 0.1842572
-0.38798103 0.08947859 0.15396668 -0.53308326 -0.84503514 -0.04168699
-0.10235986 0.13138345 0.21979359 -0.0012187947 -0.9984367 -0.05588174
-0.128874 0.13171066 0.2089902 0.0047910665 -0.99995965 0.0075985705
0.32547203 0.1280894 0.013005711 -0.013873485 -0.9980381 0.06105247
0.21268257 0.16831589 -0.24414037 -0.0005950663 0.9999555 0.009414254
0.34889057 -0.0043371897 -0.19405653 -0.9938343 -0.02154905 0.10876129
-0.22964181 0.12886147 -0.026242418 -0.0017845973 -0.99961853 -0.027562113
0.15503454 0.12916704 0.14080796 -0.0010070506 -0.99997073 0.007583396
-0.32788378 0.16766995 0.22493061 -0.0029142979 0.9999551 -0.009017539
-0.042339444 0.16761827 -0.10912619 -0.0012206949 0.99999326 0.0034637218
-0.105748825 0.16769198 -0.15208487 0.0001068112 0.999997 0.002441399
-0.14758797 0.16853452 -0.24401288 -0.0033859103 0.9995451 0.029969882
0.11727848 0.16789527 0.042604197 0.000122069636 0.99999446 0.0033263976
0.22153331 0.16765814 0.17203072 0.0015410772 0.9999607 0.008727685
0.12951146 0.12889802 0.09369824 0.0004272161 -0.9999298 0.011839989
0.13258328 0.16818866 -0.22415344 0.003249892 0.9999292 0.011443282
-0.39368075 0.09522986 0.13870879 -0.9141324 -0.40527457 -0.010698541
0.3094725 0.13022678 -0.18021294 -0.020514766 -0.99959534 -0.019706378
0.29746065 0.13036828 -0.19139306 -0.0025172841 -0.9998348 0.018002396
-0.24806243 0.13130465 -0.1446111 0.0065981215 -0.9986478 -0.051565923
-0.24279153 0.16762817 -0.119397104 0.0058437977 0.99994546 0.008651261
-0.3063401 0.16756216 0.09245186 0.0053251884 0.99997574 -0.004485975
0.02362952 0.13116121 -0.1811714 0.0056910897 -0.99992293 -0.011031254
-0.19489552 0.16707163 0.057347536 -0.002990479 0.9999186 0.012404386
0.35169384 -0.10490025 0.21959363 -0.99899536 0.035700183 -0.027087629
-0.082041234 0.1289691 0.09241392 -0.0009459888 -0.9999407 0.0108483555
-0.25953582 0.12904559 -0.05734906 -0.0017547581 -0.99999845 0.00012207012
0.16988567 0.13023655 0.19668643 -0.0026767093 -0.9967092 0.08101608
0.0017737392 0.15334697 0.2558158 0.016052755 -0.06720969 0.99760973
-0.40220344 0.15213238 0.083902024 -0.99998355 0.0054930737 -0.0016402928
0.34141946 0.15826482 0.25607455 -0.036457043 0.17186695 0.9844454
0.3367061 0.16059746 -0.2548795 -0.024586622 0.067656964 -0.99740565
0.3679626 -0.020795826 -0.2539734 -0.018734297 0.00469883 -0.99981344
-0.24643014 0.16746508 -0.02355316 0.006637414 0.99997604 0.0019530782
0.28819507 0.14011545 -0.2507329 0.0119062085 -0.25489172 -0.9668963
-0.02721425 0.16765168 0.08874759 -0.0033263925 0.9999929 -0.0017547483
-0.37336823 0.07149741 0.16059874 -0.74661946 -0.4926316 -0.44707206
-0.17604126 0.16736874 -0.11528903 -0.0005797652 0.9998813 0.015394292
0.0030740774 0.16779181 -0.13967921 -0.0028381234 0.99999595 0.00024413964
0.34871715 0.07703657 0.21946713 -0.99780154 -0.04570618 -0.04798997
0.03182444 0.12918557 -0.112922475 0.002364652 -0.99980533 -0.01958847
0.22270598 0.16750498 0.20541449 0.00064086186 0.9999886 -0.0047301706
0.16034198 0.12897573 0.10351301 -0.0028380633 -0.99997485 0.0065000807
0.35752997 0.09262996 0.053933956 -0.30062354 -0.94522876 -0.12715358
-0.314037 0.1677627 -0.012998209 0.004287679 0.9999906 0.00071715633
-0.39987436 0.1618892 -0.08043685 -0.9673287 0.24864775 -0.04949117
0.39836246 0.16746294 -0.018734613 0.19030502 0.9817247 0.0008089162
0.35012606 0.025600575 0.24137728 -0.99541605 -0.008293109 -0.09527961
-0.23058867 0.16717888 -0.09247744 0.01426275 0.99970436 0.019693272
-0.14305905 0.13051753 -0.20194264 -0.0130245555 -0.9960062 0.08832989
-0.3930842 0.097754486 0.079023644 -0.91577643 -0.39799488 -0.054346558
-0.39583057 0.112260446 0.045164574 -0.99808663 -0.06157325 0.0056425645
-0.36784053 0.16824652 -0.18616693 0.010756785 0.9999385 0.0026853818
-0.39484078 -0.038141645 0.21220131 -0.99981093 -0.012685284 -0.014737204
-0.36069658 -0.009062542 0.18636695 -0.06131365 -0.055215742 -0.99659014
-0.14417806 0.13116717 0.19265187 0.0057180757 -0.99664843 0.08160424
-0.37559366 -0.1713932 0.24513443 0.029927947 -0.98709506 0.15731376
0.1729762 0.12891327 -0.09805401 -0.0025633608 -0.9999548 -0.00915486
-0.19176587 0.13024917 0.23823592 -0.00042460565 -0.99381983 -0.11100405
-0.24132311 0.13136747 -0.1455102 0.0015845877 -0.998534 -0.05410453
-0.24492732 0.12984248 0.11882615 -0.010084531 -0.99984854 0.014188524
-0.027462253 0.13042118 -0.1559076 0.005551776 -0.9995637 -0.029009555
0.032584086 0.12805043 -0.022149187 0.000593416 -0.9971823 -0.07501387
-0.13704424 0.13144681 0.21860997 0.008645844 -0.9993193 -0.03586424
-0.31391153 0.16757962 0.07247254 0.00555411 0.9999839 0.0011443908
0.17923233 0.1679602 -0.010099333 0.00038146938 0.9999991 0.0012817371
0.35613307 -0.16964991 0.24830844 -0.24993485 -0.9543085 0.16379191
-0.02822461 0.1678978 0.23256318 -0.0012816782 0.9999531 -0.0095973285
-0.39532107 0.098644994 0.19711816 -0.9995983 -0.0027988632 0.028202169
0.3811233 -0.0052807913 0.25566262 -0.069903694 0.049029887 0.9963481
0.33547634 0.12941729 -0.14971584 -0.071952805 -0.9971451 -0.022898916
0.2769159 0.12956075 -0.1281743 -0.0015400283 -0.9992801 -0.03790604
0.34110314 0.12828177 -0.12751359 -0.15323807 -0.9879597 -0.021301072
-0.363499 -0.06401925 -0.25286216 0.016767016 -0.0020901556 -0.99985725
0.40080544 0.14284956 -0.22393818 0.9715291 -0.23268312 0.044606492
0.26426893 0.12744157 0.0036273059 -0.021239111 -0.9892867 0.144432
0.054172862 0.16781841 0.020038545 -0.0024413948 0.99999535 -0.0018157874
-0.11473204 0.12974404 -0.22437456 -0.0008239742 -0.9999995 0.00044250468
0.36027357 0.16815074 -0.21077721 0.0017700148 0.9999973 0.0014953574
-0.39477193 -0.109876364 -0.21099384 -0.99976593 0.01416447 -0.016353594
-0.14972046 0.16739094 0.088152066 0.00025939933 0.9999997 0.0006866453
-0.27706382 0.16753386 0.16255316 0.004302939 0.99999076 0.00013732784
-0.04049004 0.16752934 0.0111542875 -0.0016937194 0.99999636 -0.0021057052
0.26183242 0.12873836 -0.085691534 -0.0009765199 -0.99995637 -0.009292197
0.3421846 0.15831555 0.2561014 -0.052210085 0.16147083 0.98549545
0.33092678 0.12905672 0.22261155 -0.009975856 -0.99966013 -0.02408544
-0.32507583 0.1316798 -0.1496351 0.007164623 -0.99902284 -0.043612737
-0.081640065 0.16798033 -0.20831642 0.0005034973 0.9999152 0.013014643
-0.2625454 0.13116427 -0.2191124 -0.0069323215 -0.9984981 0.054346353
-0.21614224 0.16709411 0.15842776 0.0033263485 0.9999797 -0.0054320185
0.39842027 0.068733536 -0.21135913 0.9996423 -0.0051861326 0.02623573
-0.159573 0.12969755 0.15592596 4.577517e-05 -0.99997383 0.007232477
0.3352524 0.12848553 -0.11013258 -0.09021603 -0.9951856 -0.038297396
0.20520556 0.12915678 -0.11905269 -0.0010221179 -0.9997839 -0.020762723
0.32314238 0.16779362 -0.011134329 0.0017547547 0.99999654 0.0019378595
-0.28646594 0.12902443 0.06366234 0.00027464243 -0.99994254 0.010711054
-0.34653875 0.119436145 -0.2270541 0.99216866 0.039225906 0.11858608
0.0005369955 0.14957283 0.25554147 0.013872836 -0.111846894 0.99362856
-0.18435647 0.16796674 -0.2107402 0.0012663718 0.99991494 0.012984125
0.17540972 0.12851235 0.045651287 -7.629393e-05 -0.99999976 -0.00068664533
0.07402835 0.12919225 0.14086166 -0.0025023196 -0.99995136 0.009536279
-0.3631216 -0.17136203 0.24045263 0.013479979 -0.99878335 0.047435198
0.3980897 0.079120204 0.24038005 0.99895626 0.019876694 0.041125245
0.38336173 0.16775621 0.023273831 -0.011336501 0.9999313 0.002990517
-0.3825303 -0.078009814 0.18899052 -0.23217592 0.0008756673 -0.9726734
-0.16407554 0.16737783 0.041443147 -0.004836936 0.9999793 0.004241856
-0.14721723 0.13164878 0.20494916 0.0016479456 -0.9999978 0.001312253
0.39835885 0.12682663 0.24488384 0.9978082 -0.032658365 0.057551805
0.39824668 0.12665242 0.008147075 0.9995343 0.028429138 0.011087974
0.26264235 0.12867741 0.04458255 -0.0023803636 -0.99999684 0.0007781958
0.37301984 0.0397597 -0.2540907 -0.02714918 -0.010341092 -0.9995779
0.1150462 0.16795564 -0.059659477 -0.0014495823 0.99999815 -0.0012512184
0.3882041 0.022476858 0.25497028 -0.017422851 0.0021511577 0.9998459
0.34799284 0.10719932 -0.14779533 -0.99213034 -0.09240667 -0.08448913
0.0049455473 0.16758005 0.20134103 -0.0017852713 0.99999607 -0.0021514809
-0.34515002 0.16773634 0.23590554 -0.0018613852 0.9998995 -0.014051933
-0.06958856 0.16750862 0.08649871 -0.0020294099 0.9999955 -0.002181997
0.3982498 0.11848523 -0.038945425 0.9994851 -0.031157654 -0.007671219
-0.3476293 0.12095004 0.19406821 0.99520934 -0.09158489 -0.03421336
0.37261334 0.16772583 -0.0153324725 -0.002960184 0.99999285 0.002334578
0.39337632 0.0035432917 0.19125547 0.7611873 -0.021956114 -0.6481603
0.368664 0.16692811 0.15447794 -0.01595764 0.9998088 0.011304601
0.22369297 0.16784932 0.24170579 0.0033569143 0.9999942 0.0005035371
-0.36054435 -0.08073659 -0.25307444 0.07463025 0.03400372 -0.9966314
-0.37221432 -0.05025612 0.18824676 -0.07317283 -0.026165752 -0.99697596
0.3513858 -0.00392526 0.20090431 -0.9996653 -0.008923404 -0.024283862
-0.24902165 0.1674367 -0.046271145 0.0052336785 0.99998355 -0.0023345563
-0.08867415 0.12872542 -0.07495039 -0.002593968 -0.99999 -0.003646814
-0.36374196 -0.10671764 0.2546975 0.009993834 0.0058894963 0.9999327
0.3321904 0.12827457 0.059721768 -0.024206284 -0.99961126 0.013834341
0.028709281 0.15185767 -0.25316665 -0.004481147 -0.15974724 -0.98714775
0.20482232 0.13053511 -0.18089326 -0.0039211474 -0.9999078 -0.01299929
0.27092892 0.12893306 0.08253897 -0.0004729934 -0.99993855 0.0110772
-0.34575674 0.12806952 0.20681067 0.855744 -0.5086315 -0.09484842
-0.16015477 0.12882921 -0.044477377 -0.0012359343 -0.9999777 0.006561133
-0.06763709 0.16769624 -0.14869754 -0.00071716175 0.99999815 0.0017852751
0.03636189 0.1677736 -0.09911376 -0.0031127627 0.9999903 0.0031280213
0.34756678 0.035640344 -0.24504608 -0.99834543 0.0031381098 -0.05741522
0.28432333 0.1290174 0.09031408 -3.0513258e-05 -0.99985844 0.016828062
-0.0050366158 0.16768311 -0.04509018 -0.0011596644 0.99999684 -0.0022277762
-0.055986207 0.1516854 -0.25282297 4.5007484e-05 -0.18251285 -0.9832035
-0.37366223 -0.11001773 -0.2541114 0.03163248 0.019525375 -0.9993088
0.07141453 0.16762029 0.19361162 -0.0022125044 0.99999094 -0.003631559
0.09036355 0.16792849 -0.009308055 -0.002059931 0.9999973 0.0010528537
0.38451934 0.16770433 0.06169992 -0.012434952 0.9999227 9.1545655e-05
0.04439964 0.16757306 0.19389287 -0.0017089618 0.99998677 -0.0048522307
-0.13559656 0.12816998 -0.015579866 -0.0021896854 -0.99655014 -0.08296475
0.059306834 0.12914136 -0.10867011 0.001479702 -0.9997294 -0.023217592
-0.38180918 0.08226549 0.15937877 -0.6738697 -0.6472319 -0.35635722
0.39803812 -0.0070222947 -0.22122173 0.9999531 -0.001861485 0.0095057795
0.33595568 0.16799161 -0.18345077 -6.1035145e-05 0.9999998 -0.00061035145
0.35101986 0.025514169 0.216422 -0.99983937 -0.017804146 -0.0020596057
-0.3779761 -0.049445253 0.18892217 -0.24517682 -0.016111054 -0.9693445
0.4002873 -0.14978969 -0.24471302 0.99845034 0.015616021 -0.05341441
-0.071902394 0.16743666 0.160698 -0.0022735351 0.9999892 0.004058794
-0.19353218 0.1667157 -0.07043086 0.00036619854 0.99996614 -0.008224209
-0.1027226 0.16745037 0.09233082 -0.0014953446 0.9999888 -0.0044860337
0.38817686 0.09060984 -0.2543445 1.5258591e-05 0.0050963694 -0.999987
-0.30107698 0.12892614 0.032963756 0.002258199 -0.99995494 0.009215893
-0.39379492 -0.110863306 -0.2013831 -0.9695421 0.00097640656 0.24492271
0.29647642 0.16783439 -0.0019405943 0.0017242398 0.99999803 0.00096130185
0.39823246 -0.01789388 -0.23220876 0.99997115 0.0014037681 0.0074613327
0.36099488 0.1676829 -0.0072054816 -0.0021057043 0.99999595 0.001907341
0.37559587 -0.13444497 0.19304524 0.10821766 0.15808824 -0.98147696
-0.27737668 0.13220663 -0.17096184 -0.0012965077 -0.99962264 -0.027440201
0.3642967 0.061127633 -0.18548489 0.4685584 -0.29292968 0.8334538
-0.21980841 0.16267009 -0.25372395 0.0012812353 0.15542138 -0.98784745
-0.3440162 -0.12909098 -0.23750566 0.99851173 0.041518316 0.03536294
-0.29219648 0.13089965 -0.13693331 -0.0004779457 -0.99851245 -0.054521583
0.3880675 0.16770695 0.12954228 -0.019512275 0.9998096 -0.00010679119
0.35768637 -0.03768504 0.18670057 0.1651594 -0.02453771 -0.9859616
-0.019469744 0.12931877 -0.12153343 0.0006254597 -0.99975914 -0.021936854
0.008191618 0.12880483 0.076553196 -0.0020139324 -0.9998869 0.01490615
-0.34428766 0.16781369 0.019853733 -0.003478981 0.99999344 -0.0009918148
-0.36095 0.16768618 0.08765957 0.0054167905 0.9999853 0.00039672267
-0.1893802 0.13066292 -0.24115407 -0.008198088 -0.97508144 -0.22169545
-0.049244035 0.13106427 0.22341652 -0.0023318722 -0.99883384 -0.04822251
0.053528678 0.12955685 0.24427164 0.00042643654 -0.9981052 0.0615287
0.34938103 0.094442636 0.07504201 -0.902517 -0.42249718 -0.08342153
0.25246185 0.13997783 0.25426978 0.00010395135 -0.22986613 0.97322226
-0.35266754 0.08367583 -0.10075281 0.76652485 -0.64089173 0.04120001
-0.2746792 0.13189933 -0.2425849 0.017611846 -0.99329597 -0.114249654
-0.1205089 0.16749401 -0.049952775 -0.0033569087 0.99999255 -0.0018920758
-0.38226262 0.008559258 0.18779604 -0.13521884 -0.026312284 -0.99046636
-0.12054879 0.14438264 -0.25059018 0.0035529584 -0.29253176 -0.9562492
-0.36378187 0.16782145 -0.019702895 0.006820519 0.9999766 0.0006408541
-0.39436194 -0.017635006 -0.23310068 -0.9999038 0.00014494456 0.013868905
-0.0005801453 0.16781637 -0.1669957 -0.00196837 0.99999297 0.0031738058
-0.34435007 -0.15252975 0.21008156 0.99941623 0.033824235 -0.0048189624
-0.16382389 0.12871112 0.06462541 -0.0030973272 -0.9999332 0.011138172
0.05029068 0.12964189 0.24566591 4.5688605e-05 -0.9980828 0.06189283
-0.28868696 0.12892175 0.026447799 0.0034635942 -0.9999564 0.008666615
0.0758079 0.13138081 -0.1760507 0.0023948012 -0.9996541 -0.026190279
0.028426059 0.12855253 0.055966616 -0.0018005 -0.9999794 0.0061644237
0.40011296 0.13154532 -0.14347792 0.916635 -0.39850664 -0.031190429
-0.35054708 0.010738626 0.18875381 0.6687624 0.04086904 -0.74235207
0.26883015 0.16790977 -0.013956242 0.001907342 0.99999654 0.0017852722
-0.14782643 0.12792236 -0.0032472126 -0.0045464765 -0.9998587 0.016187286
-0.17397088 0.12818754 -0.015495824 -0.0 -0.9964537 -0.084142685
0.14391638 0.16782573 0.055849567 0.0019378498 0.99999154 0.0036163025
0.3878696 -0.17075552 0.23685278 -0.0080605 -0.9995326 -0.029489078
0.36044973 0.16805376 -0.16697198 -0.005325241 0.9999857 -0.00045775712
0.017553257 0.16771774 -0.10039575 -0.0033568784 0.99998355 0.0046385955
-0.0050050803 0.14036512 -0.24970795 -0.0017143603 -0.14183877 -0.98988825
0.39935705 0.125731 0.17434655 0.98852247 -0.15065555 0.011237323
-0.3677655 0.092892006 -0.14089282 -0.5667745 -0.8216617 -0.060321838
0.3978197 0.110657975 0.23493013 0.9991054 0.010016056 -0.04108565
-0.3463454 0.07049598 -0.24030066 0.9897978 -0.023508 0.14052694
-0.063928224 0.16758321 -0.019156316 -0.0010223038 0.99996567 0.008224205
-0.3087298 0.16779198 0.23329376 -0.0018004712 0.9999634 -0.00836151
-0.2882011 0.12978382 0.12062086 0.00526419 -0.9999825 -0.002716017
0.10435218 0.1304093 -0.24082677 -0.012289798 -0.9442253 -0.32907078
0.36372277 -0.08716611 0.19149916 0.008261812 -0.15397424 -0.9880403
0.028540922 0.16790484 -0.1800243 -0.0013122546 0.999999 0.0006103509
0.12243199 0.12899011 0.10928266 -3.0517358e-05 -0.9999928 0.003799411
0.35542724 0.027990695 -0.18753642 0.039362315 -0.06423194 0.9971584
-0.0017867046 0.12857798 -0.0595075 -0.0009307816 -0.9999951 0.002990708
0.3517923 -0.08690845 0.24461098 -0.99970514 -0.023232283 -0.0070627364
-0.28189024 0.16757932 0.2076585 -0.00018310187 0.99998033 -0.006271239
-0.36872694 0.16759448 0.1722499 0.018001586 0.9997898 0.0098093385
-0.24697806 0.13004656 0.14448817 -0.0056456155 -0.9999758 0.004073998
-0.369269 0.09328792 -0.08839016 -0.49419656 -0.8409323 0.22045986
0.14625123 0.16793925 -0.14073929 0.00062560895 0.9999978 -0.001998897
0.25217798 0.16789281 0.00392592 0.00074767845 0.999997 0.0023040704
0.0021765125 0.13019297 0.18554798 -0.009609011 -0.9964179 0.08401803
-0.3947429 -0.04401333 0.20848493 -0.9999763 -0.0066603036 -0.0017623483
-0.27504912 0.12791549 -0.0049502994 0.0016781307 -0.9997998 0.019939244
-0.39700896 0.16714853 0.09333675 -0.53246784 0.84643644 0.0048304326
-0.40178666 0.16216478 -0.0048674503 -0.88534504 0.46490362 -0.005363189
-0.015375761 0.16765998 0.07213381 -0.0026855357 0.9999958 -0.0010681108
0.056725737 0.12971017 -0.13132238 0.0022110578 -0.99933714 -0.03633759
0.17842779 0.16793287 -0.103883155 -0.00028991676 0.99999917 0.0012207021
0.23954993 0.12873212 -0.08527372 -0.0015563609 -0.9999771 -0.006591646
0.3973727 0.09672849 0.22650054 0.997687 0.044330817 -0.05153153
0.32130185 0.1685674 -0.24357834 -0.004027967 0.99991226 0.012617911
-0.16727814 0.16737245 0.021407567 -0.0060878713 0.9999367 -0.00945985
0.40084782 0.13574103 -0.1829477 0.99146414 -0.130287 -0.004916776
-0.338964 0.16784996 -0.03850741 -0.003906219 0.9999921 -0.0007476747
0.37301403 0.093904614 -0.16672152 0.26479483 -0.86646664 0.42322484
0.4030318 0.15114006 0.077616766 0.98846817 -0.1514165 0.0019306019
-0.012349092 0.12956597 -0.23641281 0.0018036766 -0.99332565 -0.115329206
-0.34734702 -0.039618824 -0.23118228 0.9993857 -0.0011437061 0.035027906
0.37905523 -0.026556706 -0.2540788 0.002212513 0.0023040653 -0.9999949
-0.04471428 0.13106859 0.22295983 -0.003489753 -0.9987094 -0.050669994
-0.34975687 0.09284835 0.067409724 0.85788596 -0.4824582 -0.17682135
-0.3958088 0.112663515 0.0540087 -0.9979439 -0.063429795 -0.009204973
-0.05034323 0.12909208 -0.112759374 0.000122056525 -0.99988705 -0.015028209
-0.021671146 0.16765583 0.051485114 -0.00404354 0.9999903 0.0017547437
0.010837893 0.12849945 -0.028064962 -0.0028183428 -0.9983941 -0.056580134
0.1512782 0.12857698 0.026788235 -0.00090026343 -0.99999434 -0.003234845
0.34361306 0.12481058 -0.113522194 -0.87189883 -0.48581326 -0.061465036
0.14699991 0.16837595 -0.24746703 0.0024413525 0.99997795 0.006179673
-0.13466837 0.16840748 -0.238279 -0.0025474906 0.9997147 0.023751156
0.25464565 0.16786228 0.018045682 0.00053405564 0.9999963 0.0026855369
0.3873942 -0.08668056 -0.25570002 -0.021503948 0.058161173 -0.99807554
-0.39152682 0.0062005096 0.25245818 -0.5265168 -0.030308299 0.84962434
-0.38153148 0.093163855 0.0648159 -0.23718728 -0.966205 -0.10094613
-0.33783528 0.15812658 -0.25396082 0.013888372 -0.03985094 -0.9991091
-0.36822417 -0.076980084 -0.25303754 -0.0053753834 0.03482181 -0.9993791
-0.0914513 0.15281202 -0.2531055 -7.525843e-05 -0.16419885 -0.98642725
-0.002717027 0.11064441 -0.004655593 -0.0081139365 -0.9792909 0.20229553
0.23136374 0.16754071 0.19325411 0.0022888063 0.9999947 0.002304065
0.24290559 0.1679227 -0.15275326 -0.0008239733 0.99999845 0.0015258766
0.39732626 0.1089206 -0.17852953 0.9945392 -0.104285784 0.0040366733
-0.35934538 0.1261859 -0.2531307 0.052486446 0.00047237042 -0.9986215
0.02444827 0.12733126 0.005944926 -0.0045519327 -0.9943848 0.10572622
0.011739481 0.13086331 0.22087255 -0.007917797 -0.99869937 -0.05036714
0.20349148 0.16792727 -0.07217748 0.00086975005 0.9999989 -0.0011901843
-0.34735608 0.16605218 -0.2534917 0.017798988 0.60221547 -0.7981351
-0.04785469 0.16858864 -0.2421481 -0.0024860746 0.9995545 0.029741384
0.10763595 0.12976386 0.18842351 -0.001979683 -0.9980039 0.06312143
-0.083766915 0.12894247 -0.09679851 -0.0026396108 -0.9999395 -0.010680506
0.34760213 0.110732704 -0.2113943 -0.99934965 -0.029003343 0.021424655
-0.32862428 0.1289521 -0.051790234 0.006316946 -0.9999695 -0.0045927553
-0.38957357 0.11086999 0.2535321 -0.64182997 0.018575985 0.766622
0.22493862 0.13033548 0.21949674 -0.0083172005 -0.99648273 -0.08338488
-0.26249862 0.12943372 0.091155626 -0.0017542769 -0.99972427 0.023415783
-0.12590086 0.16699132 0.19500506 -0.0016021065 0.9999586 -0.0089565385
-0.259658 0.12817675 -7.254386e-05 0.005657416 -0.999365 0.03517967
-0.34725636 0.09859367 -0.074980944 0.9704215 -0.24079145 0.017369147
0.3984984 -0.10051529 -0.20396101 0.9869165 -0.021941183 0.15973242
-0.3463094 0.04387784 -0.2289104 0.99972045 0.0011898528 -0.023614002
0.39863855 0.12129803 0.17451943 0.98474574 -0.17373094 0.009661736
0.25384304 0.16790116 -0.10198695 0.00091552624 0.9999988 0.0012512192
-0.03846904 0.12984073 -0.23942715 0.0007585467 -0.9942423 -0.107152306
-0.26222542 0.16794565 0.24708602 0.0011901497 0.99996984 -0.0076749395
-0.17119923 0.16718496 0.15282282 -0.0059196725 0.9998754 -0.014631356
0.013746512 0.12878913 0.076260954 -0.0018155742 -0.9998779 0.015516294
0.40173283 0.14351782 -0.14635025 0.98689 -0.16124906 -0.006836671
-0.40226495 0.153215 0.044818364 -0.9999993 0.00038146946 0.0011596672
0.35815582 0.08640179 -0.08157155 -0.117181055 -0.97259086 0.20083728
0.3982459 0.11942467 0.11353157 0.9951821 -0.09800576 -0.002718164
-0.21903037 0.16733035 0.0373152 0.0027465704 0.99999577 0.00096129964
-0.06194201 0.13155259 0.21501507 -0.0033651942 -0.99792475 -0.06430414
-0.38772085 0.047382016 0.25540346 -0.10979353 -0.022198277 0.99370646
-0.1707577 0.12940527 -0.11047453 -0.001418732 -0.99976367 -0.02169287
0.32072964 0.1297557 0.12453349 -0.0053554457 -0.9999273 0.010802438
-0.39874142 0.14662148 -0.10074437 -0.9966592 -0.07990945 -0.016880672
0.09948243 0.16793339 -0.0021270842 -0.001129149 0.9999988 0.0010528552
-0.13232255 0.16785248 -0.19807151 -0.0009002372 0.99996513 0.008300492
0.3567882 -0.051581148 0.18774858 -0.5578927 -0.0716223 -0.82681674
0.17949283 0.12907366 0.11813129 -0.0031277507 -0.99990374 0.013517986
0.107575886 0.13125908 -0.19250599 -0.003915278 -0.9945412 0.10427083
0.30050263 0.13031529 -0.1676048 -0.0034026636 -0.99998635 0.003967231
-0.29839078 0.16805878 -0.16490501 0.002105705 0.99999624 0.0017700129
-0.4004301 0.16415128 0.094159506 -0.85204124 0.5234489 0.0051916777
0.34792084 -0.09638416 -0.23145457 -0.99908876 0.02100745 0.037151784
-0.38628057 0.08859729 0.10767235 -0.5051278 -0.8592402 -0.08094562
0.1531117 0.16795199 -0.06603025 0.0004882807 0.99999887 -0.0014343245
0.18416496 0.13023272 0.22461233 0.0006866017 -0.99993616 -0.011275525
-0.32452214 0.1676948 0.2265153 -0.003387294 0.9999536 -0.009017526
-0.075476706 0.1289563 0.09137575 0.0013884375 -0.99991906 0.012648513
0.39375833 0.16817528 -0.1682844 0.03170702 0.9994955 0.00181488
-0.34497827 -0.031957667 0.24851412 0.92626923 0.0011872348 0.3768606
0.3967889 -0.0053896676 -0.2022245 0.95483375 0.0284041 0.29577994
0.048836328 0.13024074 -0.19928741 0.0030618242 -0.99830705 0.058083266
0.27656332 0.1286159 -0.07396865 -0.00086973497 -0.9999816 -0.006011852
0.18895347 0.16791017 0.24504304 0.0014492008 0.999735 0.022973645
-0.021055011 0.16764824 -0.052281514 -0.0015563909 0.9999964 -0.002181999
0.3234231 0.12901203 0.086591974 -0.008130573 -0.9997096 0.022683231
0.10513693 0.1289997 0.10972055 -0.00019836423 -0.9999999 0.00044250482
