ply
format ascii 1.0
element vertex 686
property float x
property float y
property float z
property float nx
property float ny
property float nz
end_header
-0.0090178475 0.06459158 0.18352838 -0.9938559 -0.10819496 0.02333141
-0.0048367684 0.019557832 0.07795318 -0.99001336 -0.04007729 -0.135157
0.035250675 -0.10201443 0.14416865 0.8839066 -0.42189762 0.20177068
-0.009177618 0.04023215 0.257922 -0.992923 0.11582789 -0.02622604
0.0306288 -0.055690266 0.009406902 0.3940094 0.7366761 0.54960436
0.010992443 0.053716034 -0.30448323 -0.96727115 0.22558245 0.11618589
0.04939359 0.05942565 -0.14786217 0.99470663 -0.09111365 0.0475072
0.008757297 0.03711718 -0.24545074 -0.99166644 0.021290202 -0.1270603
0.03502032 -0.07351783 0.10865698 0.9905409 0.11523261 0.07449915
0.048668742 0.05111542 -0.18018837 0.98275673 -0.18442026 0.0133582
0.030070705 -0.10228449 0.047199614 0.83057 -0.3390033 -0.4418487
-0.013083445 -0.15212414 0.27002576 -0.9565599 -0.06522198 -0.28414658
0.04856399 0.04127927 -0.3091776 0.9689051 0.13256973 0.20892157
-0.000677338 0.1458405 0.13506 -0.92507476 0.35963303 0.12206881
0.04386427 0.13396008 -0.10018042 0.97655463 0.21368092 0.026106624
0.041751668 0.13656949 -0.15499985 0.9851183 0.119817786 -0.12322998
0.01229945 -0.09141691 0.20778228 -0.38451314 -0.35632917 -0.85157454
0.016166328 -0.1709569 0.29685628 -0.15977132 -0.9850673 0.06415203
0.032103248 -0.039928075 0.4250943 0.9719562 -0.21484004 -0.095629476
-0.0033433293 0.14059538 -0.022735674 -0.9290644 0.35478562 -0.10472105
-0.005284575 -0.034538873 0.46444938 -0.88386667 -0.21589082 0.41493478
0.04412559 0.047485366 0.09505961 0.99802047 -0.058965076 0.021868246
0.014938842 0.12614316 -0.20627494 -0.70062 -0.41052458 -0.5836104
0.031313688 0.10663115 -0.007833221 -0.11264728 0.9931995 -0.029415898
0.006392766 0.06748929 0.47268382 -0.21696572 0.11873606 0.9689312
0.046096414 -0.0004940885 -0.24065106 0.9919842 0.041110676 -0.11948735
0.046027523 0.03884564 -0.46616364 0.09167016 0.17987317 -0.97940916
0.0028589193 0.05830878 -0.021357752 -0.99683946 -0.05346513 -0.058758408
0.01126449 0.100067765 0.2249148 -0.6990552 -0.54849434 0.45877638
0.035007518 -0.034453597 0.058821626 0.9818517 -0.1480658 -0.11850657
0.007262861 0.005011698 -0.2530501 -0.9946221 -0.019835984 -0.10165373
0.0042914534 0.057078578 -0.19928323 -0.98108995 0.19028679 -0.03540463
0.03508124 0.10217099 -0.09648487 0.9345702 0.34711263 -0.07804722
0.0020164058 0.13780543 -0.122541405 -0.9365034 0.3262189 -0.12861803
0.030664448 0.09743712 0.23680331 0.77232224 0.6216338 0.1307277
0.0457204 -0.07479627 0.272652 0.99919766 0.020643825 -0.034319974
0.045300435 0.07063134 0.013616565 0.99737656 -0.070904195 -0.014579571
0.045550138 -0.07180543 0.26788455 0.9997691 0.003905348 -0.021128543
0.014431236 -0.10430089 0.13085212 -0.50746936 -0.7880367 0.34852973
-0.040107466 0.012677224 0.22859591 0.7758611 0.5451899 0.3175021
0.0421343 0.08722472 -0.0097084325 0.9551333 0.29584125 0.014078656
0.00083014305 0.009838454 -0.026113 -0.9911485 -0.12386332 -0.04777585
0.03771237 -0.10276535 0.12593646 0.97848004 -0.19600657 0.064484484
0.016019145 0.16177624 -0.11135447 -0.41479066 0.9094165 -0.03017131
0.027427994 0.07967861 0.46668017 0.71628606 0.51299495 0.47304386
0.01551853 0.05626199 -0.28571627 -0.84965914 0.4836507 0.21014595
-0.0016492193 -0.043893505 0.39702916 -0.9184912 -0.3437912 -0.19540116
0.0448004 -0.011662623 -0.17751522 0.95322293 0.3018034 0.016755871
0.0054881806 -0.16814747 0.3064064 0.033098392 -0.9593703 0.28020182
0.0026277422 0.13931337 -0.124471925 -0.9873197 0.1049449 -0.119106285
0.0050843363 -0.042862736 -0.07955974 -0.976966 -0.21257837 0.018649057
0.042243976 0.09266883 0.14547966 0.8954046 0.44392452 0.034375582
-0.0025835526 -0.08716895 0.1029388 -0.9168846 -0.39452648 -0.060593065
-0.0041531594 -0.0074055144 0.34856212 -0.9821673 -0.14906505 -0.1145732
0.017503878 0.084035546 0.46150747 -0.19029418 0.96990234 0.15191312
-0.0011843905 -0.026120909 0.18293339 -0.8679958 -0.40019986 -0.29397845
0.053336482 0.06940771 -0.38714787 0.78162384 0.6218927 0.048100114
0.01597592 0.08379211 -0.22582366 -0.6893343 0.69248486 -0.21279788
0.008626725 0.08550898 -0.066106685 -0.96063817 0.27772844 -0.006420281
0.022832671 0.16279194 -0.11744413 -0.029196741 0.99866265 -0.04266747
-0.007447218 0.027855422 0.10866168 -0.9967917 0.07992768 0.004220729
0.045232195 0.020789452 -0.08899054 0.99148756 -0.1226459 0.043707393
0.03824765 0.14853281 0.07564083 0.9744072 0.22403516 -0.018406924
0.04290538 -0.08779196 0.25525302 0.98608196 -0.09011299 -0.13972102
0.03737417 0.096272856 0.0997172 0.8592773 0.49539262 -0.12739164
0.034226302 -0.030153092 0.15010956 0.96357423 -0.23290984 0.1314446
0.019926522 -0.060965907 -0.2558099 -0.5421907 -0.7158541 -0.4399798
-0.004071639 0.054059807 -0.41541058 -0.9150194 0.38755962 0.111968964
0.04531725 -0.065905035 -0.11500474 0.9991813 -0.029684538 0.027489072
0.0043414673 0.03863353 -0.19494206 -0.9988173 0.04023556 -0.02729617
0.035551608 0.037555784 0.38836828 0.9992338 -0.02936591 0.025874324
0.040796578 0.029257035 -0.27690592 0.6544246 -0.6949795 0.29787925
0.04670672 0.020911856 -0.31608972 0.8554168 -0.47753027 0.20056662
0.024967948 0.16226035 -0.14225653 -0.0043029017 0.9999821 0.0041503166
0.0028324341 -0.008594828 0.015909612 -0.9904522 -0.13766523 0.007269401
0.004803816 -0.01224091 -0.14630078 -0.9976379 0.06798479 -0.009833895
0.033578683 -0.09190477 0.169342 0.85782254 0.05548568 0.5109421
0.025656704 -0.07745712 -0.049949367 -0.123787284 -0.92974883 -0.34676188
0.040112443 0.08969774 -0.06850543 0.91446227 0.40466797 -0.0016465232
0.005599238 0.07352241 -0.14454031 -0.9414648 0.3364717 -0.020757372
-0.00069845637 -0.07899948 0.06550472 -0.99360085 0.043360878 -0.104293525
-0.04190153 0.04066278 0.1979377 0.98566955 0.09622671 0.13854961
-0.005506229 0.13747516 0.12140443 -0.982041 0.08294812 0.16945513
0.015814252 0.087942995 0.44044894 -0.12070739 0.9827929 0.13981342
0.03232874 0.11450107 -0.068654984 -0.291143 -0.9538147 0.0739819
-0.004314359 0.061566826 0.091225386 -0.99666566 0.04360108 -0.06896788
0.014799995 -0.15709534 0.3164829 -0.18101081 -0.28970048 0.939845
0.004134374 -0.021955928 -0.14449614 -0.99992794 0.0007781422 -0.011977286
0.03885655 0.08963091 -0.12399035 0.9409592 0.33848745 0.004680675
0.019515384 -0.0005103254 -0.2692125 0.38438785 -0.412441 -0.8259167
0.0031784107 0.12174209 -0.045622107 -0.26488447 -0.963933 -0.025872163
-0.047253698 0.017121542 0.17486148 0.59962904 0.48672962 -0.6352474
0.007752822 -0.08308516 0.1443832 0.056023587 0.88631546 0.4596805
0.009753359 -0.049666386 -0.2768778 -0.4665289 -0.81749475 -0.33771756
0.022427699 -0.08096117 -0.034702662 -0.5287684 -0.830158 -0.17675309
0.027750136 -0.07287637 -0.13493994 -0.4046682 -0.91444576 -0.0057069142
0.035695136 0.12452157 0.16490853 0.99985325 -0.012312035 0.011915365
0.009013569 -0.040269013 0.038222693 -0.83028406 -0.5128691 -0.21815982
0.016039666 -0.07015347 -0.09509076 -0.5196772 -0.85287845 0.050337736
0.055834718 0.043094173 -0.3375623 0.9372662 0.00024312628 0.34861448
0.052637067 0.0702176 -0.4140594 0.5091418 0.85880417 0.056833398
0.010484212 -0.048152465 -0.060714792 -0.686312 -0.7254551 0.051871985
0.036123738 0.12449518 -0.0044432627 0.84493536 -0.51865745 0.13068528
-0.010022816 0.04775502 0.35748926 -0.9984927 0.0006703748 0.054879315
-0.00011059822 0.11861062 0.11979359 -0.7944837 -0.6069062 0.021457462
0.0050296737 0.01875365 -0.22724177 -0.9979914 -0.026618788 -0.05748623
0.005313694 0.09386933 0.24648716 -0.40982997 0.90879804 0.07826623
-0.034384992 -0.02107916 0.2358287 0.38113126 0.045819815 0.9233848
0.043768443 0.08921407 0.12421698 0.94762176 0.31886223 -0.01843594
-0.040424544 0.033661596 0.19939415 0.9253898 0.26097897 0.2748522
0.012117158 -0.10781752 0.32219484 -0.19508576 -0.44197297 0.8755578
0.040203035 0.061938632 0.3097473 0.99805284 -0.019051576 0.059393402
0.04218686 -0.014162742 0.22828855 0.9962139 -0.0028577913 -0.08688901
0.035939977 0.04980953 0.38277817 0.9992913 -0.010002672 0.03629018
0.0036519559 0.031359024 -0.1395376 -0.9994288 -0.020130098 -0.02714513
0.0022311807 0.025804406 -0.10587399 -0.99244934 0.10965463 -0.054956034
0.01934652 0.037048362 -0.46411324 -0.23791845 0.024979325 -0.9709639
-0.0011936097 -0.01768472 0.16979754 -0.99468434 -0.09932273 -0.027168045
0.04126267 -0.017700609 -0.08034478 0.9753116 0.21275413 0.059186008
0.042196777 -0.046642877 -0.08532162 0.97442085 -0.21795708 0.05476062
-0.012209458 -0.16077314 0.29120848 -0.8902104 -0.4266112 0.1597763
0.034312584 -0.07594763 -0.053334717 0.7027364 -0.6916453 -0.1666983
0.008520466 -0.044185635 -0.0433543 -0.80940664 -0.58052593 0.08860295
0.045085136 0.031667143 -0.23646517 0.9904199 0.03850693 -0.13261034
0.008443952 0.03864253 -0.28858468 -0.9117578 0.31558707 0.2628733
0.016730353 0.08037109 -0.24074619 -0.52067184 0.76292795 -0.38319933
0.037802484 -0.004621129 0.4554375 0.9995051 0.029953431 0.00960828
0.023101423 -0.02732962 0.47345993 0.16311468 0.00084304775 0.9866067
0.041363936 -0.019199561 0.10107737 0.999964 -0.008315741 0.0017089229
0.014991878 -0.10902105 0.115377195 -0.4228775 -0.8990219 0.113728955
0.040027916 -0.008423296 -0.08654885 0.9997003 0.0120203225 0.021325395
-0.007501642 0.017810015 0.39640507 -0.9958471 -0.09102817 0.0015347375
0.041259736 0.030765142 -0.46655476 0.067949675 -0.16959698 -0.98316824
0.043041304 0.03626284 0.10932701 0.99481857 -0.10121842 -0.009532869
0.0022369274 -0.16372862 0.31410745 0.0875716 -0.723165 0.68510115
-0.0007627788 0.02938925 -0.0044198865 -0.9933894 0.09766247 -0.060328517
0.03437731 -0.05470244 0.1099271 0.99921924 -0.039504655 -0.00042691253
-0.008990655 0.02830157 0.37092137 -0.998158 -0.033819728 0.050367866
0.038919177 0.13579017 -0.16644427 0.91577435 -0.14015529 -0.376449
0.011620757 0.0178532 -0.2997907 -0.749214 -0.6589452 0.06685492
0.036537003 0.100587815 -0.025239278 0.87810594 0.47699845 -0.03744974
0.04646134 -0.024656193 -0.18403131 0.99962246 -0.01546657 0.02271176
0.041857455 -0.0008637917 -0.12974954 0.96437347 -0.26409316 0.015450929
-0.054267343 0.035653673 0.20137596 -0.9968598 -0.0737271 -0.028893054
0.036070947 0.0010081166 0.16080809 0.99860835 -0.015008991 0.050558206
0.043021873 -0.00823896 0.249978 0.994906 0.03248747 -0.095428154
0.047240242 0.025600305 -0.19880778 0.9958754 -0.083729155 -0.03495046
0.0034277653 -0.051108092 -0.20708889 -0.93691593 -0.30317956 0.17398478
0.037179645 0.13294499 0.12880926 0.9898423 0.05881364 0.12943386
-3.082899e-05 0.12635617 0.20917614 -0.9493344 0.11745 0.2914956
0.016062908 0.09050913 -0.18394625 -0.5929788 0.79539174 -0.12541182
0.0013621759 0.14526387 -0.054574322 -0.75198096 0.65160525 -0.09967563
0.015381745 -0.09167227 0.16507539 -0.68466765 0.34704298 0.6409301
0.038446363 0.072499566 -0.4392001 0.15027994 0.97615767 -0.15662749
0.015042439 0.08546426 -0.21888722 -0.73071045 0.65027434 -0.20785955
-0.008431106 0.062130056 0.3994229 -0.9997984 0.01907727 -0.00626247
0.039508697 -0.033293348 -0.04406061 0.99457705 0.051735125 0.09022157
-0.00800676 0.0006289254 0.43429753 -0.99854755 -0.053823385 -0.0024226236
-0.0052953744 0.08519861 0.15570042 -0.84301883 0.5376295 0.016546609
-0.009848945 -0.09091842 0.24379176 -0.4524519 -0.8290756 -0.32851312
0.027355256 -0.07839512 0.14169376 0.25500873 0.88630944 0.38655674
0.009272799 0.15572989 0.07284743 -0.46054712 0.88751966 -0.014327939
0.039338186 -0.05921502 -0.072862476 0.9922115 -0.05837963 0.110037126
-0.0057348777 -0.005158678 0.36260343 -0.9964627 -0.056371365 -0.062324613
0.035903487 -0.014903077 0.4402333 0.98979086 -0.025312645 -0.14026165
-0.0072445213 0.03826446 0.12806942 -0.99542934 -0.08608392 -0.04135218
0.049353674 0.05632597 -0.15393235 0.9915398 -0.12441149 0.037022367
0.024272742 0.07140821 -0.44063628 -0.2228696 0.9694665 -0.1022928
-0.006003414 0.001140214 0.09915232 -0.9910489 0.09596551 -0.092804976
0.045319483 -0.012016411 -0.18964024 0.9830395 0.18267325 0.016246215
0.000737846 0.11731671 0.11369812 -0.7844428 -0.62013924 0.008762343
0.0021427684 0.12803379 0.05074734 -0.8170516 -0.57589036 0.0278736
0.045999363 0.029002288 -0.11145371 0.99813294 -0.060707975 -0.0067165624
0.028670013 -0.114577405 0.07445325 -0.570929 -0.79077214 -0.22072488
0.046096876 0.024278205 -0.21539247 0.99889785 -0.02906644 -0.036855087
0.0025816285 0.14564821 0.20946252 -0.82300955 0.2973299 0.48399395
0.009129475 0.037017077 0.47316304 -0.12300404 -0.035230488 0.99178064
-0.0072251754 0.036368616 0.1628181 -0.979042 -0.18479536 -0.08560044
0.04963221 0.059005022 -0.15806538 0.99569654 -0.092662856 0.0014281536
-0.0071724197 0.025339417 0.1321246 -0.9954223 -0.0373496 0.08797433
0.0011141336 0.09909569 0.18697737 -0.9941758 0.102457635 -0.033419333
0.058416903 0.058789093 -0.387873 0.98244333 0.16590424 0.08532818
-0.0031992574 0.08159324 0.22080675 -0.9380047 0.3424699 0.053494148
-0.0042906865 0.08112752 0.40967298 -0.95342857 0.29602608 0.05781441
-0.019919986 -0.02947086 0.26314035 -0.97969466 0.05677613 0.1922884
0.042814884 0.020171886 0.045217656 0.9951197 -0.089131966 0.04233389
0.0046300115 0.09295181 0.37341222 -0.21405219 0.9537751 0.21093775
0.029153775 -0.07351415 0.33129442 0.2568765 0.21981265 0.94111466
-0.006770296 0.059562895 0.2387162 -0.9842752 0.17555532 -0.019562049
0.0149116125 -0.124796905 0.31739452 -0.27876848 -0.0577635 0.95861953
0.04841188 -0.042088676 -0.20096357 0.96574295 -0.12586075 0.22693543
0.040250707 0.08641802 -0.13135947 0.8825745 0.47006136 0.01022808
0.032966264 0.056513656 -0.4627362 -0.054881245 0.2767116 -0.95938456
0.04364295 0.051556606 0.06744859 0.99990046 0.004241521 -0.013456913
0.032378457 -0.0599401 0.46054018 0.94266504 -0.32814988 0.06082963
-0.0017782062 -0.014526293 0.3088089 -0.9337298 -0.26300034 0.2428567
0.030456541 0.12587854 0.058932852 -0.079639554 -0.9903715 -0.113233246
-0.0017593494 -0.04569275 0.10438178 -0.9500407 -0.29343548 0.106387526
0.038640592 0.14607808 0.07450985 0.99558955 0.06416886 -0.068437666
-0.0023250743 0.026230864 0.04215214 -0.9976034 0.055492602 -0.041328326
0.037572157 0.041186087 -0.26687095 0.8853701 0.44932133 -0.119290434
0.0039828448 -0.02184464 0.027301006 -0.99248546 -0.11152135 -0.05035422
-0.0017300663 0.13214299 0.04659664 -0.93368423 -0.33114877 0.1362876
0.021245707 -0.05076424 0.14322302 -0.30341864 -0.9528412 0.005532167
-0.007193305 -0.017950613 0.09292684 -0.9955259 0.05318201 -0.07810205
0.029915437 0.162284 -0.13147534 0.0950486 0.9951307 -0.026086954
0.044831794 0.066960365 0.026248066 0.9952847 -0.08908773 0.03836397
0.039695855 0.1494755 -0.016044073 0.99080646 0.076287985 0.11172577
0.05392445 0.06841545 -0.38325748 0.82422334 0.56528026 0.03337843
0.041883055 0.12227764 -0.104475416 0.89792943 -0.4400758 0.0074809184
0.011317499 -0.06370173 0.12286217 -0.6967025 0.37921256 0.60893637
0.03535682 0.056334343 0.40115747 0.9996589 0.013057068 0.022621065
0.029990397 -0.052642573 -0.2709948 0.08175711 -0.8383567 -0.5389563
0.003234779 0.037756633 -0.13271263 -0.99814314 -0.060358297 -0.008193985
0.028752457 -0.0031681815 0.47148997 0.3230534 0.04366522 0.9453729
-0.0151475575 -0.14918417 0.2854483 -0.99712807 0.07323725 -0.019284971
-0.010868521 -0.080478914 0.29758865 -0.97022575 -0.077079475 0.22960992
0.031966306 -0.08850417 0.32815254 0.7366025 -0.2390391 0.6326745
0.041586895 0.016799899 0.08423344 0.9678265 -0.24982819 0.029962916
0.03610134 0.06698318 0.45525596 0.9692383 0.14952086 0.1955011
0.004757962 -0.006496153 -0.1886838 -0.99978286 -0.018047228 0.01041949
-0.0009465334 0.07307125 0.061645705 -0.99674827 -0.054372787 -0.059467863
0.038397454 0.09806508 -0.002910878 0.96945083 0.24299878 -0.033416584
-0.0041768416 0.046236772 -0.40040377 -0.96777934 0.20626004 0.14443003
0.0033811848 0.03617429 -0.13753979 -0.99823606 -0.057926815 -0.01300802
-0.011667604 0.03938787 0.31429288 -0.99582684 -0.089499205 -0.017854257
0.002760285 0.03942018 -0.052912783 -0.99358827 0.11285815 -0.0067314636
0.06536408 0.048159294 -0.45214748 0.91375875 0.22584622 -0.33769578
0.005845922 -0.040074706 0.04860477 -0.95439756 -0.2673839 -0.13278212
0.026724793 0.0940451 0.3432296 0.6835214 0.7272798 0.06215063
0.018534059 -0.045984313 0.027277183 0.14764297 -0.98860073 -0.029498423
0.04573476 -0.13244212 0.27709427 0.9991175 0.04084222 -0.009802743
0.0019157549 -0.047034528 -0.25564516 -0.88775593 -0.46021476 -0.009581956
0.007007384 -0.041200463 0.14767927 -0.30382428 -0.7423327 0.5971875
0.04546645 0.075269 -0.34930664 0.53536934 0.8373938 0.110232495
0.041145228 -0.017419973 0.08975171 0.9990124 -0.027835032 -0.03463373
0.004464024 0.12142081 0.07487281 -0.8698686 -0.46803752 -0.15578686
0.021491509 0.09509182 0.3592137 0.2656958 0.96282226 0.048775785
0.03675636 0.09781223 -0.09340767 0.943621 0.32968846 -0.029751243
0.015314295 0.041862812 -0.46230876 -0.23970497 0.1621701 -0.95720553
0.008169326 0.09447583 0.3141478 -0.21006411 0.97636604 -0.050817635
-0.004754723 0.08289063 0.2711167 -0.91122025 0.41029188 0.036581732
0.050851155 -0.04256315 -0.22495413 0.9961894 -0.078420125 0.038168818
0.043610834 0.045395706 -0.24159016 0.93799645 -0.14139506 -0.31649652
0.044757344 0.04727468 0.17993605 0.9820868 -0.1563593 0.10515399
0.026662044 0.08465876 0.4273199 0.8177735 0.57553864 -0.0013260854
0.03830839 0.14109139 0.067616574 0.99617535 -0.001839252 -0.087356865
0.0491286 -0.03926814 -0.20272213 0.9814837 -0.12850463 0.14204316
0.042904027 -0.050573543 0.29299685 0.98706806 0.08419358 0.13641168
0.039619025 0.09481533 0.02659529 0.97769326 0.20912635 0.019543124
0.038362708 -0.081051625 0.32022965 0.93993175 0.0056221504 0.34131616
0.0004836846 0.1474708 -0.017197827 -0.8076819 0.5889818 -0.02739283
-0.0544905 0.027145552 0.20567045 -0.97419345 0.12833709 -0.18567887
0.0054922802 -0.027495725 0.011677822 -0.9807649 -0.19419181 -0.019741483
0.03906155 0.13199382 0.11051376 0.99162215 -0.11581232 0.057210136
0.0051764543 -0.08161959 0.14204481 0.14767939 0.8666146 0.47662345
0.036908172 0.10718363 0.13048975 0.93663114 0.34566426 -0.056905694
0.03071892 0.06421151 -0.29248622 0.301778 0.8581226 0.4153983
0.010462756 0.16117851 -0.0373511 -0.6197791 0.7847288 -0.008634313
0.042739872 0.14104873 -0.10736792 0.9763562 0.21400997 0.030466437
0.021170266 -0.04121701 0.16667628 -0.16364516 -0.9863473 0.01841807
-0.007397111 0.07325497 0.26592326 -0.98751384 0.1429677 -0.06615722
-0.0036602013 0.039439347 -0.37201732 -0.9867397 0.15701622 -0.041119173
0.04443955 0.023055432 -0.06295139 0.9962338 -0.076189026 0.041393198
0.046591718 0.052749716 -0.068076305 0.99669 -0.05353315 0.06118292
0.04500018 -0.018223684 -0.124335326 0.9666303 0.24694961 0.068130486
0.03474118 0.0024954483 0.4070615 0.9979391 -0.03174901 -0.05576253
0.023287468 -0.085545786 0.020414297 -0.2322025 -0.9348296 -0.2686551
0.025739368 -0.11221865 0.07155362 -0.5011466 -0.8544446 -0.13702717
0.035027996 -0.0132128885 -0.26954636 -0.05396476 0.6113535 -0.78951544
0.024927665 0.15562102 0.19845113 0.16224755 0.9865518 0.019780412
-0.001027327 -0.044411387 0.46846616 -0.70851636 -0.10720289 0.69750416
0.032309268 -0.109751515 0.06096283 0.6224805 -0.7565284 -0.20045647
0.042395998 -0.0026271865 0.24432093 0.9970696 0.031706132 -0.0696196
-0.0035861558 -0.03119127 0.37855142 -0.9652206 -0.24006061 -0.10353852
0.01041536 0.095274664 0.32081965 -0.09079865 0.9947477 -0.047251124
0.01878148 0.012480706 -0.27438316 0.61596847 0.47081783 -0.63159597
0.04494738 0.06434441 0.0110302465 0.9996103 -0.024240265 0.01384682
0.043709632 0.03637787 0.08693752 0.99564266 -0.08212958 0.04416402
0.008129119 0.014752776 -0.2542231 -0.9950167 -0.05140879 -0.085433334
0.037855886 0.14130247 0.05770551 0.9950392 0.09821943 -0.0158056
0.028345238 0.091287516 0.3556894 0.74120754 0.66613007 0.08295833
-0.0067162886 -0.16639277 0.29083446 -0.5128001 -0.85830957 0.01845989
0.032901943 0.085065015 -0.23433584 0.48739496 0.77559406 -0.4011234
0.000366327 -0.15821424 0.31453732 -0.7642139 -0.15880431 0.6251066
0.009911815 -0.094161764 0.21237686 -0.2844815 -0.7845063 -0.55101734
0.012758598 -0.16950475 0.2656213 -0.17758703 -0.9744867 -0.13725355
0.0015037002 -0.066628926 0.46469343 -0.87069446 -0.399528 0.28682506
0.004417128 0.075001195 -0.06071311 -0.9668266 0.25325796 -0.03326712
0.042384222 0.08332609 0.050622802 0.94989926 0.3116422 0.023886627
0.00760273 0.015819453 -0.24775057 -0.98454094 0.011507543 -0.17477645
0.03613731 -0.029218817 -0.0035073385 0.9723509 -0.2192745 0.08032696
0.029254314 0.031365056 0.47184297 0.3408045 0.0115471035 0.9400633
0.03480345 -0.088567905 0.15486099 0.67547315 0.7296349 0.1066249
0.027861292 -0.16652156 0.31446245 0.06993323 -0.773657 0.6297334
0.03601137 0.06949116 0.36736596 0.9976024 0.04196762 0.05502827
0.038933903 0.028102247 0.29236975 0.999607 -0.027882105 -0.0028827777
0.036103774 0.14173326 -0.17966907 0.9469405 -0.20666641 -0.24615598
0.013236257 -0.050454866 -0.27521566 -0.019824278 -0.88956106 -0.45638597
0.039547935 0.08245982 0.25943577 0.9033842 0.42874083 0.00884968
0.044049185 0.080097854 0.08999712 0.9515644 0.30463824 -0.04148284
0.03964513 -0.007510666 -0.06430607 0.99949884 -0.011407854 0.029526211
0.004869084 -0.010695664 -0.15159714 -0.9984985 0.05088783 0.020278953
-0.036574967 0.01775857 0.20452505 0.9576427 0.2822446 0.057083603
-0.009688553 0.031920042 0.36143488 -0.9975758 -0.049630675 0.048778255
-0.0026550388 0.03684634 -0.3368672 -0.9130223 0.39026633 0.118669495
0.035400856 -0.11575821 0.3166686 0.8147695 -0.18146326 0.5506557
0.02739101 0.10408399 -0.04750543 -0.32018942 0.9454507 0.06001396
-0.012108938 0.06780392 0.31320012 -0.99688673 0.067659795 -0.040484834
0.025350755 -0.08420581 -0.029207734 -0.6499523 -0.7489421 -0.12902647
0.037283547 -0.020272993 0.4495655 0.97650534 -0.02956125 -0.21345593
0.034948997 0.123582594 0.00084517803 0.8612244 -0.49575335 0.11189768
-0.008686936 0.07786078 0.16311832 -0.95183396 0.30513847 -0.03004255
0.00962283 -0.038072437 0.014958271 -0.9327127 -0.3603183 0.014759438
0.00032865474 0.025189526 -0.030097265 -0.999481 -0.009059017 -0.030913513
-0.007602918 -0.022908697 0.10604503 -0.9979348 -0.0607949 0.02073955
-0.009496416 0.025962846 0.23912707 -0.9911085 0.12491693 0.04582304
0.045124672 0.058146864 -0.01772091 0.98799354 -0.1536776 0.015871674
0.03392179 -0.035216067 0.46780336 0.6203539 -0.072642155 0.78095084
0.040272504 -0.05792354 0.23327625 0.9660275 -0.06460722 -0.2502332
0.037920974 -0.10542393 0.23777999 0.9275414 -0.16259614 -0.336496
-0.0030827087 0.13201107 -0.072378166 -0.9944908 0.05932559 -0.08642007
0.013028296 -0.06806514 0.011813403 -0.99037147 0.12772553 -0.053390235
0.047894716 -0.015038084 -0.2177477 0.941269 0.33164737 0.06342535
0.03070195 0.08628169 0.36489597 0.88361096 0.45636696 0.1046942
0.0047780895 -0.012255516 -0.15376651 -0.9994039 0.03432706 0.0036904258
0.021711856 0.1184023 -0.13788718 -0.5870622 -0.7693972 -0.2517658
0.03366472 -0.028177783 0.3634598 0.9604418 -0.24530734 -0.13181762
-0.005956696 0.13520667 0.102722116 -0.9979887 -0.01973967 -0.060240235
0.03682887 0.018711142 0.34943742 0.9980964 -0.06161954 0.002558597
0.045330953 0.010188889 -0.14731681 0.99775994 0.034209695 0.05748812
0.013390142 -0.05401531 -0.18609308 -0.22455862 -0.78151315 0.5820744
-0.0036015995 -0.040177513 0.46621048 -0.92456055 -0.1688618 0.341575
-0.0061643017 -0.013263243 0.088752806 -0.9874714 0.08100352 -0.13542022
0.024461297 -0.046785455 0.03751239 0.19856003 -0.91523635 -0.35059434
0.044939987 0.086162746 0.13441668 0.957912 0.28683627 -0.011379614
0.053778537 0.0648475 -0.3618388 0.9142722 0.39954394 0.06686564
0.029360633 -0.04594592 0.3274255 0.9297935 -0.092691235 0.3562196
-0.005934719 -0.018006809 0.39270738 -0.9977856 -0.05262547 -0.040673845
-0.008465945 0.040400732 0.21114922 -0.991149 0.1244154 0.04630887
0.037801854 0.14899667 0.09072995 0.9205478 0.3884825 0.040903248
0.008717282 0.057211764 -0.32834318 -0.8568366 0.4819091 0.18328846
-0.0052402755 0.08477701 0.30117887 -0.7874183 0.6098897 -0.08948182
0.008248009 0.08436944 -0.09030385 -0.9210603 0.3893875 0.005017373
0.03860989 -0.015880104 0.064778805 0.9942812 -0.04220719 -0.09809909
0.0048809443 -0.009186961 -0.082025416 -0.9978082 -0.06330699 -0.019260062
-0.009409992 0.048303194 0.43118528 -0.99802965 0.061722018 0.01127687
0.04588681 -0.08669881 0.27689865 0.9994581 -0.015616532 -0.028975988
-0.008255137 0.04358798 -0.43746758 -0.9716661 0.23631875 -0.00429967
0.04314838 0.016329007 0.02166735 0.993803 -0.10890951 0.022230763
0.04113256 -0.098136775 0.24691659 0.95288897 0.0139949005 -0.3029963
-0.00057775533 0.01858085 -0.32358745 -0.63730866 -0.38033718 0.6702099
0.02925903 -0.17224781 0.27556506 0.01521588 -0.99968714 -0.019853102
0.0101535665 -0.16559963 0.3113739 0.06475645 -0.68371826 0.72686726
0.004721652 -0.010573201 -0.17903472 -0.9997491 0.018900895 -0.012020909
0.0047983155 0.07635295 -0.06013335 -0.8882246 0.4585304 -0.028407574
0.034706168 0.15463255 0.091712184 0.7553273 0.6546054 0.031184051
-0.0034384013 0.007756318 0.076033175 -0.98582506 -0.112217024 -0.12472486
0.004193423 0.0026448106 -0.16121024 -0.9937312 -0.11066056 0.015890965
0.029181786 0.07167874 -0.4450996 -0.14944637 0.97882444 -0.13988754
-0.0062840963 -0.009959327 0.38562855 -0.9986341 -0.04979761 0.015816988
0.034047473 -0.07252313 0.012053878 0.99931675 0.03595564 0.008554332
0.009408447 -0.038583267 -0.29653028 -0.9215989 -0.24311222 -0.3025755
0.04859886 0.05279274 -0.14591785 0.9931478 -0.107511796 0.045811247
0.019135315 0.12166512 -0.20722571 -0.09064583 -0.13049263 -0.9872968
0.04727912 -0.050773006 -0.20956941 0.8547473 -0.46403587 0.23254615
0.03904709 0.14546163 0.09703698 0.967253 0.25367957 -0.008265101
0.031228043 -0.047669146 -0.27832273 0.06921465 -0.8441521 -0.531617
-0.007224992 0.07906836 0.3788044 -0.9297553 0.3583692 0.084419385
0.036111865 0.1263465 0.1515659 0.99839664 -0.04935921 0.027711235
0.038582556 -0.022833662 0.20795573 0.9604011 -0.08235861 -0.26617074
0.036848933 0.012991164 0.32218066 0.9934293 -0.045596853 0.10497246
0.047986105 0.07262997 -0.4174761 0.17616954 0.98426664 0.013546882
-0.009151065 0.052833904 0.43412024 -0.99950033 0.030875983 0.006763892
0.013351891 0.102947436 0.01828534 -0.3325497 0.9422793 -0.038993247
0.006352145 -0.0010107532 -0.38098383 -0.058258064 -0.9942709 0.08961729
0.04084058 0.083773345 0.22236365 0.8726983 0.47482482 0.11375046
0.033557236 -0.0737092 0.325822 0.7860636 0.14448139 0.60102344
-0.003142158 -0.12115649 0.24217811 -0.87557435 -0.24127808 -0.41851455
0.0411825 -0.020423662 -0.27868384 0.6319977 0.6744137 -0.38176575
0.017482929 -0.063267924 -0.06332455 -0.96782696 -0.23456375 0.0910538
-0.05896063 -0.0024373266 0.21106642 -0.9931287 0.030027535 0.11310902
-0.058922105 -0.008888034 0.21220133 -0.9988336 0.010988755 0.047018457
0.056583475 0.0022479254 -0.43290275 0.28229907 -0.95929515 0.007743334
0.008632017 0.09900717 0.012831362 -0.94739056 0.3057451 -0.09471592
-0.007335023 0.043390278 -0.41601 -0.9879905 0.09903121 0.1186068
-0.00040488213 -0.05216688 0.100982666 -0.97335494 -0.219293 0.067013204
0.024609858 -0.070827305 0.4603482 0.5211613 -0.83621603 0.17068577
-0.015061012 -0.10292663 0.255614 -0.83628774 -0.24429157 -0.49086094
0.025379997 0.10288484 -0.04144882 -0.2752226 0.9606918 0.03638362
0.00057849917 0.12882724 0.044518877 -0.6602226 -0.72118527 0.2097569
-0.004295808 0.049462836 0.08144568 -0.9945605 0.062281437 -0.083489604
0.0421385 0.0055461233 -0.072258286 0.9576939 -0.28617126 0.030468624
0.0035707932 0.024152365 -0.17403828 -0.9933591 0.11222581 0.025358425
0.037340418 0.055207863 0.4501139 0.9993888 0.018101113 -0.029904198
-0.0045299074 -0.110548705 0.24411884 -0.9789191 -0.029807022 -0.20206189
0.008929093 -0.14684553 0.23764192 -0.073988914 -0.04397985 -0.9962888
0.048064448 0.052481804 -0.13592136 0.9954425 -0.084588915 0.044033628
-0.002593619 -0.008387195 0.1403176 -0.9806338 -0.17972401 0.07782404
-0.008531981 0.06010424 0.41533288 -0.99838114 0.04514622 -0.03459661
-0.0027246543 -0.13915943 0.31061077 -0.7456282 0.08887443 0.660409
0.00054445845 0.05269594 -0.36564988 -0.9699337 0.19948938 0.13940133
0.025613768 0.16222633 -0.13333468 -0.028932173 0.999525 -0.010615072
0.019741511 0.09971374 -0.10630211 -0.59011316 0.8072051 -0.013650688
-0.0078063942 -0.015559919 0.46009538 -0.9726417 -0.033482052 0.22988486
0.03707864 -0.03989969 0.07988155 0.9371078 -0.27018753 -0.22096992
0.046475586 0.07179219 0.13240695 0.99775225 -0.057457227 -0.03448347
-0.005604459 -0.11750289 0.2497579 -0.95992035 0.16847713 -0.22398278
0.0031772794 0.04054499 -0.11467079 -0.99966145 -0.024787137 -0.00791663
-0.0050237384 0.076094955 0.4290463 -0.9026638 0.42405027 0.07334419
0.04158176 0.15008716 -0.08484136 0.99423784 -0.1011745 0.03542397
-0.056897216 -0.024338746 0.21858887 -0.85365516 -0.17547084 0.4903905
0.03715409 0.07278336 0.3445983 0.9956054 0.039128788 0.08508109
-0.031488758 0.0012419026 0.21931598 0.80460274 0.48672086 0.3401723
-0.058944255 0.0054896134 0.21458125 -0.99999374 0.0014419465 0.0032424724
0.025970979 0.0034748116 -0.4487303 -0.06430696 -0.91837454 -0.39045212
-0.0024668172 -0.13307923 0.24814951 -0.8781805 -0.13625091 -0.45851353
0.044473518 0.07200724 0.045737743 0.9971595 -0.06954981 0.028909348
0.022926878 -0.05119649 0.039654866 0.4194717 0.51829267 -0.7452625
0.013024663 0.06229179 -0.25504977 -0.94830126 0.097208984 -0.30211765
0.04765265 -0.05388025 -0.23943277 0.8922881 -0.43853313 -0.107288055
0.040553704 0.06617665 0.30538806 0.9943 0.0092396345 0.10621787
0.040569294 0.060188733 0.268445 0.99835 -0.05491717 -0.016772207
0.039214335 -0.060521826 -0.2570098 -0.093584344 -0.965356 -0.24357685
0.033299193 -0.14537269 0.32103342 0.7025624 -0.05980259 0.70910484
0.016565405 -0.056077365 -0.056893013 -0.85084295 -0.5218709 0.060967382
0.040338263 -0.015396062 0.114568196 0.99143684 0.03639827 0.12541215
0.011748328 -0.05803182 0.3988597 -0.1279572 -0.9522828 -0.27710012
0.042136103 0.01005132 0.0015099819 0.9732801 -0.22921151 0.013707543
-0.0005466156 -0.0643965 0.07263893 -0.99274737 0.07998209 -0.08975262
0.008414323 -0.046023168 -0.15613355 -0.89947873 -0.4365763 -0.018418891
0.007060561 -0.04066588 -0.024000803 -0.97642624 -0.2111349 -0.044876035
-0.006695095 0.018999383 -0.42425635 -0.98080075 -0.1936354 0.023137175
0.03528344 -0.0892302 0.1563966 0.6482886 0.7589188 0.061351802
0.0040597925 -0.017912384 -0.035927422 -0.9967292 -0.07668318 -0.025505293
0.014309267 -0.10188559 0.13471717 -0.4528726 -0.7538542 0.4760359
0.041745897 0.0761377 0.2507601 0.99988544 0.0061943587 0.013807623
0.044072203 0.0797727 -0.13449296 0.90256816 0.43053895 0.0026442427
-0.0020295228 -0.012687788 0.0697421 -0.97246295 -0.009955305 -0.2328447
0.0099383565 0.12036149 -0.10033617 -0.54465336 -0.8385648 -0.01271871
0.012562655 -0.07256227 -0.0032801018 -0.9713206 -0.21901253 0.09257307
0.04899633 0.055558402 -0.14739911 0.9927272 -0.11047355 0.0478368
0.04645545 0.04271981 -0.08535302 0.9933619 -0.10769403 0.04042505
0.038640007 0.084037535 0.26702523 0.81502694 0.57816464 0.03816708
0.033662166 -0.057619497 -0.195258 0.28561217 -0.60792345 0.74084735
0.034866042 0.09176702 0.23692116 0.8179712 0.5657307 0.104268365
0.0025931383 0.0571959 -0.35924438 -0.8985037 0.4188429 0.13138369
0.020891964 0.11768889 -0.18729267 0.04569414 -0.99159306 -0.1210592
0.032461017 -0.07767554 -0.081107 -0.14933985 -0.9884 0.027622294
0.035931803 0.0065597026 0.35518557 0.9968377 -0.07914042 -0.007179373
0.0003444705 -0.030226879 0.18393232 -0.88203335 -0.34664384 -0.3191476
-0.015257199 -0.024412313 0.20061071 -0.29105103 0.06837782 -0.9542608
0.018174397 0.15781897 0.051647205 -0.08257796 0.98218316 0.16881071
0.046689954 0.07852051 0.14202997 0.99163294 0.12840267 -0.013300252
0.026725417 -0.027054608 0.4725487 0.35366094 -0.014813174 0.9352564
0.04212627 0.023459189 0.21005358 0.99124235 -0.13201238 -0.0033729102
0.039573267 0.025366075 0.26244512 0.995061 0.08110986 0.05722633
0.03938492 0.015427259 0.28383783 0.9971523 0.060770057 0.044657014
0.034768738 -0.027356239 0.20014998 0.9118594 -0.1967143 -0.36029968
0.035568487 0.11282245 0.18838531 0.99318606 -0.10203738 -0.056300145
0.024284033 -0.08358432 0.008655056 -0.20682772 -0.972776 -0.10454196
0.04815616 0.048753377 -0.19487211 0.99653167 -0.08255265 -0.0104768425
-0.011824151 0.064131334 0.30241835 -0.9981666 0.054061774 -0.027217465
0.02816938 -0.07881138 -0.04575151 0.020941235 -0.94779336 -0.31819686
0.0028687816 0.05304863 -0.020895233 -0.99740094 0.012540563 -0.07095159
0.007727088 -0.05884711 0.049315408 -0.7321089 0.34223768 -0.58897364
-0.0014276857 -0.05922656 0.4619608 -0.97224617 -0.19054458 0.13575782
0.0010267121 -0.077439874 0.21226321 -0.65572244 0.047456227 -0.7535091
0.042659383 -0.01552004 0.23893136 0.9985618 0.030778425 -0.04389735
0.0024727006 0.05718434 -0.14168157 -0.9996329 -0.02689137 -0.0032946886
0.004504796 -0.023894133 -0.034286797 -0.9955817 -0.09286485 -0.013900105
0.03269383 -0.03030292 0.16196534 0.8875691 -0.39949822 0.22939524
-0.00662351 0.08081251 0.29381105 -0.8919907 0.4351807 -0.12235337
0.0013587696 -0.029802464 0.15644749 -0.9646218 -0.2553073 0.06574959
0.0013519146 0.00032000826 0.011599708 -0.9765046 -0.21523452 -0.010623898
0.033849493 0.113405235 -0.10774957 0.84680843 -0.5207249 0.10844824
0.04143246 -0.13034083 0.25141123 0.9102341 -0.12379329 -0.39515704
0.021070087 -0.04727742 0.0056106043 0.28661728 -0.9343522 0.2117462
0.0016625017 -0.1474056 0.23954338 -0.85941887 0.012051482 -0.51113015
0.042635806 -0.025995295 -0.07764049 0.9909167 0.112554684 0.07358996
0.0351738 0.015989555 0.4053867 0.9971918 -0.023417331 -0.071134515
-0.0067359963 -0.014772168 0.11418166 -0.9855687 -0.081952766 0.14811502
0.010154681 0.06866757 -0.40437984 -0.3728254 0.9269153 0.042770263
0.03764683 -0.0063610375 0.03854965 0.9993934 -0.032268014 -0.013099349
0.03634827 0.0063047963 0.1694332 0.94737226 -0.31781122 -0.03849567
0.028784836 0.07359317 -0.4136715 -0.15737098 0.9854256 -0.06458134
0.008946459 0.095044695 0.36010805 -0.176709 0.98400885 0.022372028
0.046228647 0.019838851 -0.21166365 0.9980763 0.03518 -0.051049072
0.022851732 0.07557983 -0.3471856 -0.059819236 0.9977891 0.028958052
0.030449916 0.0052766316 -0.372018 0.24170507 -0.96970946 0.035245482
0.023267405 0.014845202 -0.46032473 -0.10828933 -0.49291703 -0.86331123
0.046118878 0.028307097 -0.14718409 0.99454856 -0.101919375 0.022034982
0.0082209 0.13858224 0.21970427 -0.6526759 0.34927374 0.6723258
-0.0075975345 0.051537737 0.21269752 -0.99868774 0.00876991 0.050455555
-0.003031515 -0.08587939 0.100117564 -0.93692845 -0.34942532 -0.008191833
0.0056090713 0.0024312404 0.47202218 -0.21337356 0.019062921 0.9767847
0.03810454 0.091697514 -0.1173066 0.93889964 0.34396425 -0.012492683
0.0030497145 0.00521974 -0.06221537 -0.9816912 -0.18661359 -0.038182538
0.0024130922 0.08882423 0.06258017 -0.92406684 0.38022715 -0.03908833
-0.011200753 0.041353296 0.32725704 -0.999102 -0.031793628 0.028005224
0.04803768 0.06633401 -0.095566764 0.9999256 0.0060267732 0.01060407
0.013530441 0.12250132 0.023564504 0.2733621 -0.951916 0.13830787
0.04010838 0.018102521 0.17261061 0.92634046 -0.37646624 -0.012905103
0.03989775 -0.002844716 -0.061658084 0.99566877 -0.091429666 0.016863897
0.04193159 0.06257877 0.22752322 0.9927953 -0.07272965 0.09522569
0.046105646 0.065138325 0.12329891 0.9994772 0.005597048 -0.031843696
0.035974912 -0.045649566 0.09193607 0.9543959 -0.29853997 -0.0015436701
-0.04746427 -0.027023548 0.16574433 -0.637726 -0.2897286 -0.7136966
0.03462441 0.10506048 -0.003814953 0.80921423 0.5865472 -0.033684332
0.0020937675 -0.026736427 -0.2601472 -0.8329579 0.5077266 -0.21998824
0.042704865 0.040719595 0.19930427 0.9997167 -0.0019525717 0.023720695
0.040220518 0.075232044 -0.37869447 0.036013123 0.99166214 -0.12373079
-0.007438178 0.07537131 0.12497858 -0.9959574 0.05213366 -0.07315125
-0.014587569 0.0023031197 0.22017066 -0.9081775 0.38586536 -0.1622389
0.039075013 -0.09176126 0.12057099 0.9787502 0.16837205 -0.11704202
0.003939442 -0.039510965 0.35765246 -0.59402376 -0.75642055 -0.273795
-0.027928552 -0.017621811 0.18519002 0.880299 -0.46384788 0.09959376
0.008700998 0.07935279 -0.17378435 -0.9608743 0.26976207 -0.06284038
0.03495797 -0.064793184 -0.012801253 0.99592656 -0.009269946 0.08969053
0.037157197 -0.0765874 -0.071807496 0.8988589 -0.4296743 0.08621316
0.0456 -0.043739676 -0.18677595 0.9593172 -0.2299779 0.16377015
-2.248137e-05 0.12412923 -0.06280653 -0.7357046 -0.671376 -0.08940356
-0.011051173 0.0037628799 0.26864225 -0.99064845 0.087960556 0.10430106
-0.007045219 0.013297226 -0.35006028 -0.96680355 -0.25256592 0.03874679
0.03600605 0.07506565 -0.24832958 0.54155475 0.65121233 -0.53163993
0.04638796 0.006223341 -0.19890112 0.98979646 -0.1424373 -0.003821083
0.006046885 0.105529815 0.1181037 -0.9411915 0.32721728 0.08418678
0.045067642 -0.042194307 0.2602075 0.99970585 0.006483078 -0.02336959
0.010537477 -0.05982439 -0.11519332 -0.9972334 -0.06804852 0.029915785
0.040299684 -0.082672805 0.31428468 0.97973037 0.03940688 0.19640653
0.008784257 0.15932243 -0.038929388 -0.78378767 0.6205868 -0.023428956
0.04550591 0.042537857 -0.23141257 0.9900516 -0.09222817 -0.106262565
0.0335374 -0.046016637 0.0040399875 0.98384774 -0.16076699 0.07872463
-0.0017883183 -0.08824322 0.1196018 -0.87478495 -0.4792014 0.07153527
0.041081693 0.01066089 0.24522714 0.99481905 0.07731038 -0.06601667
0.014618808 0.07480342 0.4722144 -0.15769456 0.42429224 0.8916886
0.004812503 0.15215845 0.033054944 -0.7899082 0.6009744 0.12196236
0.009062798 0.08561448 0.44755152 -0.3337311 0.9330405 0.1343837
0.0040912945 0.03308251 -0.16750622 -0.99952024 0.030945228 0.0013116263
0.04130206 -0.010744965 0.09392357 0.9992762 0.037966885 -0.002332905
0.043334033 -0.020354994 0.2731571 0.9954514 0.05118822 0.08035184
0.00031879742 0.042845104 0.0048557753 -0.9975541 0.06274289 -0.030808251
0.045705583 0.04912515 0.13367128 0.99869734 -0.045442436 0.023208862
0.006893379 0.1321375 -0.17809455 -0.9507534 0.040693104 -0.30726558
0.019827418 -0.07201063 -0.23755093 -0.4117839 -0.7816338 -0.4684897
0.0022517855 0.065300785 -0.024173012 -0.98969096 -0.13319917 -0.052628677
0.05949672 0.050034575 -0.38584158 0.9820681 0.13357781 0.13303834
0.017007852 -0.079698816 -0.026641238 -0.66481304 -0.69029284 -0.28551614
0.04338347 0.019516874 -0.24527307 0.96490943 -0.0018698653 -0.26257622
-0.008078025 0.045042414 0.19653982 -0.9994733 0.030654011 0.01065265
0.031182326 0.11026949 0.08475454 0.56540054 0.80001587 -0.20074065
0.044341754 0.0787842 0.00898028 0.96871805 0.24815705 0.0018478491
0.03008326 -0.045719378 0.2001282 0.883736 -0.18268178 -0.43085736
0.0032344286 -0.017066384 0.035265192 -0.9968281 -0.051213384 -0.060917612
0.031000739 -0.06158719 0.45145962 0.8980318 -0.42021245 -0.13023214
0.04642575 -0.026539885 -0.17862241 0.9970937 0.07397262 0.018226903
0.016662305 0.14623843 -0.1930879 -0.82212836 0.3024272 -0.4823305
0.035995793 0.099848546 0.10035209 0.96154594 0.26575443 -0.06931066
0.0046731276 -0.030892948 0.17447716 -0.598033 -0.7851061 -0.1611364
-0.01849618 -0.08461844 0.2482184 -0.9364808 -0.34228 -0.07647269
0.0019719151 0.07391576 -0.01051702 -0.9702558 0.23907486 -0.03803762
0.041399516 -0.006538626 -0.12748596 0.98686814 0.16120031 0.010284896
0.012296978 0.05139325 -0.29250327 -0.92580914 0.34575164 0.1527523
0.008688455 0.046603184 -0.24367581 -0.9933402 -0.031284396 -0.110889845
-0.0005090653 -0.01866781 0.15077192 -0.9982796 -0.055796783 0.018020092
0.03555604 0.048521653 0.39257774 0.99925596 0.0035221577 0.03840829
0.0221765 0.0031832391 -0.37015194 0.25503856 -0.96091795 0.10766633
0.036124304 0.06013045 0.37845927 0.99854565 0.028141996 0.045984052
-0.0012100827 0.016715305 0.0080098435 -0.99097896 -0.1281214 -0.03931496
0.018148586 0.121083096 -0.15852132 -0.4881612 -0.8638118 0.12461054
0.008898137 0.06834396 -0.35700694 -0.8857777 0.46193275 0.044899803
-0.0014390756 0.047830753 0.058555566 -0.99420416 0.09267568 -0.054491904
0.043086328 -0.0044375802 0.25552118 0.99850154 0.05091846 -0.020050475
0.035791587 0.005389538 0.3716129 0.99700755 -0.04790614 0.060669955
0.01781805 -0.062060338 -0.056025483 -0.9633434 -0.24917577 0.09940305
-0.055879727 0.053496875 0.19903703 -0.9979782 -0.024006845 0.05884837
-0.009433376 0.023461105 0.2503155 -0.99819875 0.05997326 -0.0015688243
0.02612298 -0.045877557 0.011424678 0.12556697 -0.97948664 0.15760325
0.035569362 0.01347602 -0.315647 0.14601476 -0.9807469 0.12967297
-0.0068344623 0.039359022 0.11965134 -0.9984502 -0.031117775 -0.046139624
0.03569618 0.10076229 0.078005254 0.90699947 0.4195786 -0.03613549
0.060676776 0.05894424 -0.45510155 0.7602201 0.40766802 -0.5058381
0.037741493 -0.08885492 0.096662484 0.99853706 0.052489627 0.01298147
-0.053843655 -0.036444075 0.21144128 -0.93304265 -0.3589173 -0.02469425
-0.005679973 -0.00072705233 0.30587283 -0.9264884 -0.2475163 0.28346947
0.03743378 0.09818058 0.057045154 0.94886553 0.31215385 0.047055252
0.018830687 -0.17131001 0.2981262 -0.16258894 -0.9846081 0.064122126
-0.014349397 -0.07669412 0.2803638 -0.99216163 -0.08044963 0.0956191
0.030110054 0.07191876 -0.32439455 -0.04327109 0.9788796 0.1998058
0.005249357 0.14537287 -0.16006772 -0.921499 0.37826014 -0.08808412
0.036766794 -0.108479716 0.12181896 0.9584191 -0.2810199 0.049604744
-0.0044637346 -0.024894604 0.46740386 -0.69392693 0.007951952 0.7200015
-0.0010614771 0.03489256 0.030275589 -0.9941103 0.103816085 -0.031096283
-0.012804159 -0.07907705 0.2883068 -0.9751796 -0.15976721 0.15329438
0.002122748 0.00991225 -0.054910008 -0.99044025 -0.12989992 -0.046411775
0.0017837248 0.14987186 0.09855408 -0.7555171 0.6550413 -0.010714787
0.026610278 -0.08891338 0.16550218 -0.029401127 0.93580973 0.35127726
0.043057565 0.13973226 -0.10881418 0.97333556 0.22742748 0.029911771
0.06563708 0.03541109 -0.42308742 0.9826618 -0.08068395 0.16693075
0.046202965 -0.046765383 -0.14260337 0.9938414 -0.09849548 -0.050771806
0.043988053 0.0395451 0.07887459 0.99725294 -0.057032835 -0.047263604
0.009979418 0.005458916 -0.4455813 -0.28312007 -0.9205087 -0.26927087
0.048707016 -0.017386466 -0.23180485 0.9859301 0.1667187 0.0121105
0.0048657497 0.07546489 -0.07150433 -0.9633265 0.26729017 -0.023621608
0.0042561525 -0.07495788 0.12899049 -0.0030159918 0.76691604 0.6417404
0.04316097 -0.12003965 0.3004823 0.9401299 0.0012336909 0.3408143
0.033239488 -0.039944015 0.43627283 0.96329457 -0.2390971 -0.122049846
0.007369153 0.08182838 0.46120816 -0.25691065 0.9563701 0.13911554
-0.0059034266 -0.022404073 0.4068869 -0.9995329 -0.027515586 0.013299449
0.03546467 0.10727988 0.19519381 0.9965916 -0.0766878 -0.030398356
0.03789696 -0.052952953 -0.044490833 0.99646467 -0.03367873 0.07696692
0.047002617 -0.015306033 -0.2095577 0.9459126 0.30604753 0.10763046
0.014394652 0.09516997 0.27189207 0.0028838094 0.9999647 0.0078885155
-0.018066902 -0.012591177 0.20829669 0.5472158 0.6880329 -0.47661892
0.047857683 -0.05459701 -0.2320584 0.8932735 -0.44951272 -0.00091322814
0.028112113 -0.083366096 0.15028891 0.13956083 0.904764 0.40239882
0.005794103 -0.065209 -0.21283643 -0.993761 -0.09359853 0.06064959
0.041448936 0.0884984 0.00023144973 0.9180947 0.39543778 0.027037395
0.0025555796 0.011495329 -0.07639181 -0.99542254 -0.09494608 -0.01092085
-0.0016006613 -0.015679657 0.16979809 -0.97648823 -0.20623866 -0.062740445
0.01780947 0.11959769 -0.04553568 -0.09820335 -0.99410796 0.045885872
0.04509892 0.07749382 -0.03442051 0.9387658 0.3445043 -0.0059611187
0.004280966 -4.2415573e-05 -0.09521698 -0.99656653 -0.08278363 0.001414195
-0.004211465 0.13067126 -0.007449266 -0.8044169 -0.58864826 0.08004155
0.039702907 0.09354952 0.037148263 0.9690482 0.24524893 0.028257005
0.005459339 0.15122259 -0.14448982 -0.9789386 0.17667978 -0.102291435
0.033152588 0.07017514 -0.31244764 -0.08166412 0.97043335 0.22713436
0.028301045 -0.056383114 0.13302349 0.00065474235 -0.8481579 0.52974313
0.04403329 0.044431906 -0.015513121 0.9997529 -0.02216554 0.001723817
0.044030305 -0.009950221 -0.26255488 0.7560262 0.43162912 -0.4920576
0.0433955 0.15528475 -0.12842074 0.6937372 0.72000104 -0.018090773
0.0036698184 0.14545217 -0.0820814 -0.8987982 0.43831775 0.0062675597
0.044065945 0.045154233 -0.018203419 0.9995336 -0.022313198 0.020849036
-0.0053847698 0.009780896 -0.40039784 -0.88772917 -0.45837107 -0.042811424
0.061165277 0.007848396 -0.41685236 0.95880175 -0.28052118 0.044800147
0.036117576 0.10933482 0.13523442 0.93156445 0.3635228 0.0062401854
-0.0017732385 0.09045316 0.3580708 -0.6669101 0.7448082 0.022172863
-0.011724228 -0.08779824 0.29059917 -0.9814952 -0.09424666 0.16668765
0.046785902 0.07434603 0.1385561 0.9985195 -0.04528198 -0.0301372
0.032757856 -0.07299796 0.21613802 0.6911225 -0.2723547 -0.66945696
0.041325178 0.14778274 -0.07987889 0.99441534 -0.08582173 -0.061422627
0.04756824 0.06564866 -0.073426224 0.999232 -0.0018906367 0.03913923
0.032995805 -0.082763374 0.016057352 0.6212006 -0.77382654 -0.123702906
-0.009384775 -0.16415147 0.27525666 -0.4404345 -0.8740934 -0.20488566
0.008743528 0.09603371 -0.0008673456 -0.93597203 0.34629065 -0.06355401
0.035560273 -0.018872183 0.15985118 0.9912015 -0.12358258 -0.047400292
-0.00028828124 -0.061967507 0.07190299 -0.99364233 0.080054194 -0.07915965
0.0041051493 0.007659251 -0.2243352 -0.999573 -0.0248307 -0.015404796
0.038558602 0.0028276006 0.042811863 0.98885846 -0.13308306 0.06669242
0.05679772 0.038087074 -0.3409573 0.9777693 -0.037575915 0.20628902
0.043494727 0.044958908 0.054813366 0.99629474 -0.08040471 0.03052612
0.03418594 0.10867481 0.1009998 0.96909 0.22435048 -0.10262275
0.0038832412 -0.032001708 0.3400092 -0.883445 -0.437274 -0.1682746
0.03466784 -0.080928996 0.047963023 0.997054 -0.06671267 -0.037852027
0.05129841 0.071173005 -0.39133582 0.53940105 0.840053 -0.05794347
0.067305125 0.040889334 -0.44284934 0.99080354 0.11666917 0.06853199
0.026620146 0.10211113 -0.11765587 -0.42368802 0.9044272 -0.04999908
0.013975143 0.15020862 -0.18744247 -0.895796 0.08078238 -0.43706256
0.0018439161 0.14442153 -0.065709025 -0.7494387 0.65864474 -0.06729561
0.022160312 0.075391315 -0.35656476 -0.10408853 0.9932362 -0.0514532
-0.014482927 -0.02920663 0.2742778 -0.8718009 0.21345393 0.44090888
0.03355963 -0.09348605 0.048876464 0.9810071 -0.054921187 -0.18603449
0.03216954 -0.09155223 0.32686812 0.82942796 -0.10534909 0.5485898
0.03149664 0.07361922 0.46484262 0.8384916 0.35425043 0.4140513
0.039743938 0.09457501 0.021489162 0.9760544 0.21646078 0.02150608
0.00684132 0.080690734 -0.09673326 -0.93423325 0.35662404 0.005245939
0.018289898 -0.04596651 0.025833631 0.18713523 -0.9798342 -0.07003835
0.003906116 0.04769105 -0.17758182 -0.9993131 -0.037053388 -0.0006251806
-0.058279704 0.013823851 0.19526365 -0.94747394 0.3173812 -0.039526273
0.009077921 -0.10900557 0.09149506 -0.5605928 -0.82181376 -0.10177369
-0.019424107 -0.017390953 0.2558909 -0.9174667 0.29070517 0.27156097
0.044507306 0.046794 0.021533065 0.99929464 -0.03752539 -0.0014790585
0.035398997 0.09076153 -0.16901645 0.65790886 0.7510642 -0.05530426
0.0002896979 0.1471001 -0.018423082 -0.80650276 0.5881219 -0.06054678
0.04385268 0.035503097 0.016749887 0.9983892 -0.055361122 -0.012415881
0.026705591 -0.07178794 -0.16290602 0.055906303 0.80311453 -0.59319603
0.020135818 0.12866245 -0.20925938 0.2989453 -0.036875516 -0.9535575
0.009677107 0.09535496 0.3523424 -0.20845503 0.9779033 0.015861683
0.040745657 -0.004944905 0.21872786 0.9904197 0.092482105 -0.1025471
0.044526763 0.04742894 0.023792895 0.9995537 -0.029039769 0.0070159105
0.037332736 -0.028817326 -0.014680096 0.9860421 -0.1342086 0.098534994
0.044318855 0.031606093 -0.023648271 0.9981439 -0.054494612 0.027186384
0.006290242 -0.036830522 -0.021258578 -0.92758965 -0.32513204 0.18402895
0.0022846602 -0.09749415 0.110000856 -0.79742247 -0.6028212 0.026909687
0.04512841 0.03212074 -0.06724367 0.9990803 -0.032135945 0.028385736
0.030981632 0.010559054 0.47029474 0.5675839 -0.02735922 0.82286084
