ply
format ascii 1.0
element vertex 682
property float x
property float y
property float z
property float nx
property float ny
property float nz
end_header
-0.0097354045 -0.086094566 0.047799684 -0.99367034 -0.10611695 0.036857408
0.055373516 0.02015056 -0.10151237 0.9986842 0.051278263 -0.00054859364
0.03296457 0.040426984 -0.13198307 0.40256655 0.911089 -0.088639885
0.027468098 0.07791071 0.12993535 0.9568966 -0.27820906 -0.08335759
-0.035797287 0.03598653 -0.051394153 -0.38764855 0.9211695 0.034282416
0.031224014 0.090587236 0.19468695 0.99960077 -0.011256491 0.025914332
-0.0020425692 -0.0828072 0.27863303 -0.3762837 0.5419193 0.75148785
0.027721155 0.009491145 -0.15807891 0.46832088 -0.87276375 -0.13769181
-0.0095925545 -0.11272792 0.2278958 -0.9077212 -0.32757664 -0.26217496
0.01817218 0.008613169 -0.21039872 0.46319398 -0.8858866 0.02561577
-0.01914672 0.03722368 -0.17441276 -0.16108905 0.97470605 -0.15491414
0.0079160705 -0.07456889 -0.065949254 -0.3036504 -0.41485763 -0.8577235
-0.0021352058 0.037100893 0.4456536 -0.20864743 0.96362674 0.16700193
-0.011736194 -0.059252024 0.4640633 -0.9321847 -0.3113209 -0.18469165
0.033518396 -0.02013573 0.3873133 0.9121503 -0.40684596 -0.049580008
0.03186482 0.09650953 0.18131174 0.99621093 -0.08691916 -0.0029793906
0.025708178 -0.027963728 0.12106636 0.9815918 -0.16574 0.094909504
-0.00944843 0.034272224 0.45057282 -0.42868108 0.90250385 0.04146483
-0.01306767 0.09740677 0.20041226 -0.9739159 -0.03327328 0.22445674
-0.017823314 -0.016735705 0.432223 -0.94675064 -0.31246307 -0.07765343
-0.022109708 -0.005370522 0.44748268 -0.9848709 -0.16598357 -0.049787555
-0.011882827 -0.020998964 0.042095732 -0.9993152 -0.0065415376 -0.03642066
0.010310734 0.038555186 -0.21593289 0.3657227 0.9307239 4.260516e-05
0.036889676 -0.009477464 0.39461166 0.9985867 -0.05078567 -0.015663866
0.030920431 0.0884195 0.12333951 0.94186693 -0.3336689 -0.039392963
-0.011584069 -0.016886458 0.16192618 -0.977928 -0.20842299 -0.01472055
-0.0071975645 0.09851215 0.09458929 -0.94042534 -0.0590277 -0.3348371
-0.036993854 0.020153327 0.026991636 -0.7892495 0.59828633 0.13834277
-0.017454201 0.001682784 0.20653163 -0.9582653 -0.2858083 -0.006411733
-0.0020070605 -0.023656629 -0.122013085 -0.8874739 -0.3729557 -0.27072886
0.03092863 0.033211242 0.35150072 0.7227841 0.6908181 0.018804122
0.0019021338 0.038261514 -0.2740818 -0.45893508 0.8884694 0.0008676459
0.025920039 -0.0371998 -0.07906319 0.9401607 -0.23737852 -0.24443662
0.027886348 0.082262814 0.21184888 0.9557284 -0.21737805 0.19831774
-0.012614584 -0.02429383 -0.010870026 -0.9637854 -0.23293148 0.12984838
0.0071431585 0.0024904388 -0.22447717 0.35272896 -0.93558544 0.016188871
-0.0113298055 -0.023951942 0.20012662 -0.99839807 -0.055772938 0.009521466
-0.017537586 -0.013199402 -0.04091805 -0.9911029 -0.11767236 -0.06219534
-0.0058796704 0.03638818 0.34894574 -0.5909621 0.80659145 -0.013193756
0.03932791 0.0043805586 0.4205812 0.9928239 -0.11940671 -0.0065293442
0.022897173 -0.03572264 0.25028318 0.7880722 0.3045699 0.5349574
-0.02938609 0.039415475 -0.115127236 -0.25133827 0.967899 0.0007532173
-0.007915361 -0.043237947 0.124893054 -0.9917395 -0.122522265 0.03796049
-0.0017033846 -0.032843146 0.2541773 0.018930744 0.5418848 0.8402395
-0.018161695 -0.0064703147 0.061092988 -0.80583775 -0.5918872 0.017177664
-0.018922463 -0.008704302 0.38098547 -0.9658672 -0.25837862 -0.01846667
-0.017166384 0.0015314149 0.16164146 -0.95549524 -0.29061717 0.050700907
-0.007154424 -0.03224754 0.37778082 -0.904678 -0.4207272 -0.06742706
-0.009947294 -0.09602346 0.22235051 -0.97821236 0.005015249 -0.20754622
0.007501767 0.048165847 -0.10682987 0.07732661 0.99659324 -0.028680038
0.022746745 0.037898228 0.41923326 0.39588046 0.9149583 -0.078294165
-0.009032368 -0.07113878 -0.009024464 -0.98107946 -0.18035957 0.07038185
-0.010140038 0.0073224492 -0.16860472 -0.25150838 -0.95685905 -0.14547949
-0.031476013 0.034352954 -0.17020586 -0.27051747 0.93431526 -0.2321104
0.027328525 -0.07462628 0.21647723 0.9844679 -0.07589008 -0.15831463
-0.0028832352 -0.022799838 -0.12029882 -0.88988614 -0.36972448 -0.26721975
-0.016584815 0.023206431 -0.33342206 -0.96272486 0.2698556 -0.018406589
0.02792568 -0.023674164 0.02451068 0.9888151 -0.14336734 0.04111513
0.032913614 0.029125098 0.22792386 0.9489501 0.3144852 0.024348415
-0.01052909 -0.08553867 0.24744117 -0.98085475 0.18997176 0.04283457
0.035918426 -0.00084810937 0.33108944 0.98304176 -0.17377532 -0.058575105
0.018317815 -0.015600345 0.2856231 0.17819126 -0.9803099 -0.08509053
-0.015119295 -0.011741763 0.06666468 -0.8957784 -0.44404837 -0.02005168
0.005630169 -0.067796126 0.152784 -0.44575807 -0.7749613 0.4480344
0.023873076 0.034576643 0.48293972 0.2380344 0.84873897 0.47220948
-0.0067358017 0.048254933 0.11673049 -0.9336635 0.3460279 -0.09239616
-0.021724744 0.02261158 0.46539545 -0.8784204 0.44795564 -0.1664731
-0.007344468 0.055921808 0.13786303 -0.99526346 0.02987947 -0.09250866
0.034736894 0.008577054 0.22686416 0.9965057 -0.08226159 0.014475607
-0.010717452 -0.033207964 0.030181361 -0.99898565 -0.021249175 -0.039701205
-0.011247077 -0.027448172 0.20458731 -0.9999613 -0.006370298 -0.006065134
0.009242117 -0.0011679318 -0.45191014 -0.08214412 -0.9965563 0.011313444
-0.01975547 -0.0056041447 0.3812678 -0.9680822 -0.24982004 -0.020170841
-0.0029698515 -0.050730493 0.42224395 -0.702163 -0.59340894 -0.39348814
0.005590686 -0.06607946 0.27461573 -0.31815395 0.44330066 0.8380111
0.018740894 -0.113623425 0.050710823 0.99590296 -0.051089868 0.0746137
0.05480793 0.022685492 -0.113394946 0.9940784 0.10259928 -0.035797503
0.020501224 -0.07019562 -0.048838153 0.8420385 -0.43546095 -0.318347
0.026550377 0.0140994955 -0.2176877 0.71962893 -0.69435096 -0.003316161
-0.009125317 0.045768168 -0.04639149 -0.30167818 0.95221215 0.04777334
-0.01392336 0.029543303 -0.48060164 -0.7424987 0.6571381 -0.1298659
-0.012229305 0.0073881643 -0.4161885 -0.5504092 -0.834051 0.03753077
0.027295714 -0.052643992 0.19933006 0.97254753 -0.11573636 -0.20188196
-0.022825528 0.013975027 0.37475756 -0.9758604 0.21696873 0.024919165
0.00789177 -0.12636401 0.04501895 -0.047895037 -0.99883825 -0.0053038895
0.0023339312 0.13014573 0.19024639 -0.034924377 0.9986056 -0.039587058
0.030273568 0.023416357 -0.21713945 0.6181899 0.75724673 -0.21075715
0.035804868 -0.014470603 0.39404643 0.9595373 -0.2802799 -0.027042625
-0.0069985446 -0.021628866 0.3293565 -0.6702416 -0.71616155 -0.1946507
-0.020326292 0.01036417 0.32347935 -0.98856395 -0.13759135 -0.061724912
-0.03211832 -0.0002816104 -0.013339722 -0.40039098 -0.91241086 0.084814556
0.023261476 0.06785295 0.12352727 0.9454261 -0.3032213 -0.11927464
-0.019739944 0.01041332 0.20291515 -0.99936134 0.025870003 0.02465008
0.028130902 -0.113828175 0.26511282 0.9275575 -0.30102876 0.2214017
0.020912915 0.122663245 0.11271875 0.45554268 0.8814415 -0.12466672
-0.0011489581 0.047272537 -0.023105003 -0.21995614 0.9752416 0.022872105
0.02849124 0.0027185574 -0.12454357 0.4703232 -0.85430175 -0.22127949
-5.8717327e-05 -0.07374352 0.4797635 0.0049054744 -0.37633613 0.9264702
0.024902895 -0.06905481 -0.018855073 0.9856135 -0.14861806 0.08049017
0.02841899 0.0770975 0.17251737 0.9693259 -0.24341121 -0.034033492
0.022162028 0.05730118 0.21672238 0.959974 -0.090612784 0.26502702
-0.009855368 -0.06820835 0.06277441 -0.9898425 0.14131396 0.015564464
-0.006820241 0.036519293 -0.19817798 -0.44600087 0.8852475 -0.13198492
-0.016220806 0.0011986273 0.28431073 -0.96227205 -0.27085927 -0.025842266
0.024882313 0.008821956 -0.3561883 0.5343919 -0.84398276 0.046026524
0.0040495014 0.00015674438 -0.4134999 -0.12057631 -0.9926 0.014373435
-0.008512569 -0.03788229 0.12676783 -0.98907125 -0.1362282 0.05639137
0.02248498 0.03598315 0.38914314 0.30222666 0.95320886 -0.0071996823
0.008249199 -0.0012267096 -0.46320894 -0.08505649 -0.9962935 0.012830684
-0.013874377 0.03005544 0.2999607 -0.7031564 0.71064067 -0.02368224
0.017546153 -0.07439037 -0.053298727 0.7990674 -0.4272533 -0.42302006
0.018453028 -0.11056905 0.019509993 0.976072 -0.21740301 -0.004393635
0.028320892 -0.027373362 0.07796665 0.9976148 -0.06850077 -0.008509318
0.024544759 0.04388415 0.14948714 0.9136135 0.4046324 -0.039786547
0.0204901 -0.040901165 0.41075322 0.637776 -0.72177386 -0.2688574
-0.0051693786 0.052930757 0.21342182 -0.105175644 -0.10473804 0.98892266
0.024103697 0.038100436 0.24139749 0.4066561 0.90942204 0.087076165
0.032615747 -0.02991796 0.42871487 0.9322391 -0.3533308 -0.07802325
-0.014181534 0.012814681 -0.25292537 -0.593532 -0.8043348 -0.027663736
-0.018502895 0.03241385 0.11820517 -0.90305984 0.4294481 0.007565
0.055413477 0.016373571 -0.05425752 0.98549604 0.16870545 0.018330684
0.009666465 0.1286084 0.16185045 -0.050245468 0.9984497 -0.023949629
-0.025779292 -0.00031801325 -0.11094027 0.24977149 -0.9371937 -0.2434793
0.044024076 0.034063336 -0.017423201 0.555481 0.8308761 0.032950547
0.010326781 0.10831918 0.07389078 0.016733631 -0.6547195 -0.7556867
0.030474775 0.023271833 -0.36484328 0.9596338 0.27852166 0.03909641
0.030105697 0.02543024 -0.37445977 0.7894201 0.61370766 0.013370611
-0.010270233 -0.042973626 0.035793692 -0.98994523 -0.12869015 -0.058714554
0.030089077 0.03968187 0.021010749 0.38023508 0.92368174 0.04725807
0.025132556 -0.057128005 0.022745334 0.9975476 0.015434468 -0.06826784
0.027899 -0.044009894 0.19843686 0.9867868 -0.024287218 -0.16019325
-0.007535694 -0.10604446 0.015935063 -0.9979349 -0.062957175 0.012745231
0.026474541 0.02807023 -0.31871635 0.80723566 0.5895496 0.028317792
0.011051884 0.047971226 -0.01958824 0.17467488 0.98439187 0.021479499
0.028521283 -0.017133525 0.09811646 0.99787 -0.040547606 0.051099423
0.027419636 -0.04126966 0.09604365 0.9914322 -0.11326374 0.065065764
0.05392384 0.011487292 -0.10156706 0.923017 -0.36522946 -0.12102486
-0.003056808 0.036424983 0.4735521 -0.059916757 0.99763834 -0.033581395
-0.023480324 0.013136122 0.43803546 -0.99957633 0.027896501 0.00830489
0.03400766 -0.029881058 0.44391254 0.94173014 -0.30103722 -0.15006956
0.025114544 0.045140836 -0.050781954 0.34913975 0.9363352 0.037118513
0.01175146 -0.12269011 0.08598963 0.89471966 -0.24231535 0.37517992
-0.0071256845 -0.11572254 0.22345845 -0.9112994 -0.26275504 -0.31700665
-0.0054785563 0.099491216 0.22668688 -0.7555695 -0.093461946 0.6483669
-0.03910206 0.03448669 -0.098923296 -0.51194954 0.8590078 0.0036438622
-0.020860488 -0.012048988 0.4507725 -0.94508696 -0.31995568 -0.06662551
0.019531496 -0.060932234 0.13866164 0.97380567 -0.21056823 0.08581127
0.0092747435 0.12670869 0.13303493 -0.032385115 0.9936286 -0.107950374
0.01945792 -0.11351623 0.28031912 0.53194857 -0.50372994 0.6806518
-0.04441239 0.02717566 -0.15014149 -0.8489371 0.520994 -0.08871907
-0.012006869 -0.013908847 0.031327907 -0.98312205 -0.17663224 -0.04766648
-0.004430509 0.11391083 0.22691466 -0.8222394 0.27713066 0.49711257
0.0020373852 -0.0003689757 -0.4924595 -0.1678194 -0.9840039 -0.059773553
-0.016262174 0.026718905 0.38620275 -0.68082845 0.73236775 0.010493367
0.027022064 -0.01599203 0.2354617 0.9405484 -0.32855186 0.08615284
0.023970556 0.05748326 0.21064103 0.98923904 0.055216007 0.13548903
0.016610218 -0.059223033 0.17049395 0.6711476 -0.7412883 -0.007250455
0.024503887 0.041805826 -0.14479795 0.30870688 0.935254 -0.17320523
-0.006620686 -0.11841784 0.07780101 -0.99958414 -0.02721036 -0.00954803
-0.039409287 0.00028380775 -0.07478007 -0.7429303 -0.66905785 0.020399522
0.023956742 -0.0320644 0.15156615 0.9968578 -0.07918765 -0.0019621986
0.042870145 0.03412916 -0.00797849 0.62676084 0.7767441 0.061962634
0.036252294 -0.019941248 -0.040832985 0.8811277 -0.40448728 -0.24495688
0.028040906 -0.11428532 0.24356604 0.9606289 -0.2500514 -0.12110467
0.031539727 0.021989562 -0.47381586 0.98052335 0.19520399 -0.021664396
0.023892283 -0.07481536 -0.019369133 0.9758594 -0.21792148 0.01444372
0.015329962 0.036709383 -0.20984046 0.45448777 0.8857428 -0.09434283
0.008103917 0.0014901481 -0.31247893 0.3049043 -0.9522814 -0.013906234
0.00013261335 0.035838887 0.3914808 -0.12469985 0.9911861 -0.044722553
0.023420671 0.045005012 -0.028394064 0.49849442 0.8662785 0.032631546
0.0324101 -0.005777695 0.008402415 0.7838932 -0.6203805 0.025286106
-0.0042525847 -0.058705054 0.26536986 -0.65086347 0.32105175 0.68796986
-0.025786635 -0.008147184 -0.051199913 0.08648 -0.9803759 -0.17715609
0.030688033 -0.009786625 0.24538694 0.74588007 -0.66586405 0.016969409
-0.009158543 -0.058930162 0.018060556 -0.9979324 0.06425895 -0.0013476107
-0.01599323 -0.02851776 -0.02972261 -0.9877033 0.039320648 0.15131441
-0.0072688786 0.004240122 -0.42451257 -0.40924424 -0.9119736 0.028693993
0.0059120515 -0.12002481 0.21980426 -0.04855443 -0.637241 -0.76913345
0.0245157 0.045626007 0.16958709 0.98754877 0.15564562 -0.022844298
0.028588662 0.022018796 -0.25540835 0.8583973 0.5126205 -0.019345898
-0.01659535 0.016643805 -0.34532967 -0.9684595 -0.24910463 -0.0057558436
-0.018408759 0.018042704 0.24941869 -0.9601741 0.279224 0.009977396
0.043264724 0.033677727 -0.00604289 0.651133 0.75827146 0.03240842
0.02738707 0.011864031 -0.34000182 0.7280081 -0.68556243 0.0028771074
0.014665019 -0.0005080077 -0.47095385 0.24255036 -0.9684282 0.05758613
-0.009997165 -0.08077881 0.2231322 -0.9975622 0.045177683 -0.05318424
0.049147535 0.015962113 0.019658586 0.98140496 0.055962235 0.18360958
0.013947207 0.037321266 -0.36062947 0.5552326 0.8311226 0.030855667
-0.012654048 -0.015081748 0.19357501 -0.9717174 -0.2361459 -0.00054119393
0.016354343 0.0377487 0.32095248 -0.058420278 0.99807906 -0.020620713
0.026800519 0.09166023 0.09449617 0.80711085 -0.3896619 -0.44354886
-0.013026201 0.012231201 -0.21548064 -0.48852926 -0.8724488 0.013126137
0.024806883 0.027053492 -0.2509875 0.75266117 0.65836704 0.007353587
0.037299875 0.0391456 -0.030404963 0.5232107 0.85177976 0.026865063
-0.018361997 0.027258584 0.17097141 -0.99391097 0.10469005 0.034365878
-0.009197554 -0.05988265 0.08350314 -0.99866366 -0.048953354 -0.016564138
-0.0067892047 0.067533985 0.21361375 -0.98019284 -0.0687478 0.1857305
0.03980165 0.012822693 0.4307888 0.9999189 -0.012312844 -0.003265116
0.0022297017 0.001026206 -0.38441628 -0.24093524 -0.9698975 0.035341114
-0.026268596 0.014248652 0.085156664 -0.94080466 0.28838125 0.17810918
-0.014078457 -0.059615713 -0.035867475 -0.9451917 -0.32294098 -0.04818551
0.027451094 -0.030814627 0.04071955 0.99728674 -0.07044129 -0.02138043
0.028540839 -0.094288245 0.23722391 0.9915216 0.1129865 -0.064178996
-0.0053226897 -0.055092342 0.14860873 -0.96059245 -0.27282038 0.053208217
0.025466213 -0.0555814 0.0086274175 0.9842298 -0.13681096 0.11213614
0.018767484 0.0059585623 -0.3105657 0.58593225 -0.81018215 0.016978232
-0.017780837 0.025867881 -0.22097851 -0.39262256 0.89965373 -0.19097298
-0.0018818304 -0.029301507 0.48755267 -0.0023813818 -0.10887617 0.99405247
0.022638623 0.11752889 0.09030293 0.62923217 0.7055573 -0.32596904
-0.006094839 -0.10637364 0.08521877 -0.9973672 0.013909815 0.07116985
0.04070375 0.01640988 -0.17347667 0.36240628 -0.9227499 -0.13112746
-0.007030897 -0.090292394 0.28007248 -0.9178539 0.27498782 0.2862271
0.024247134 0.053336583 0.18188328 0.9958633 0.069216266 -0.05886802
-0.034111295 0.007595285 -0.1580625 -0.07054538 -0.97784734 -0.19707347
0.004844241 -0.00018872562 -0.42912 -0.12720935 -0.9915309 0.02615901
0.030032597 -0.0076790894 -0.087846294 0.5350678 -0.831512 -0.14929956
0.023987181 0.061597615 0.17596379 0.9855009 -0.16966867 0.00076691504
-0.006257368 -0.09223337 0.09084356 -0.990473 -0.100111276 0.0945571
-0.0022316545 0.0016844111 -0.4959396 -0.50531864 -0.79848695 -0.32721806
-0.008329283 0.077387154 0.21276931 -0.9843425 -0.09698333 0.14718726
0.021031521 0.032311745 -0.3334033 0.56357926 0.82560265 0.027544318
-0.028227273 -0.0017187687 -0.011956061 -0.29174504 -0.95239025 0.088530906
-0.023765001 -0.0077110855 -0.052990858 0.06869572 -0.99657834 -0.045961883
0.0056871586 0.09435589 0.22993483 0.0035421404 -0.489742 0.8718602
0.03795466 0.0058321874 0.08558331 0.8613913 -0.50021505 0.08826054
0.0137126185 0.06655278 0.1052027 0.40716946 -0.2996073 -0.8628143
-0.013361922 -0.014494735 0.057984505 -0.9881357 -0.14207014 -0.05834337
-0.011492985 0.11831509 0.13456106 -0.8449182 0.52077675 -0.122084856
-0.009359804 0.07719854 0.20554492 -0.98725086 -0.055624753 0.1491361
0.021207882 -0.06926645 0.115605526 0.9787433 0.052106254 0.1983592
0.032627244 -0.0066836006 0.30498347 0.91459584 -0.3945674 -0.08849262
0.0016583316 0.03789442 0.4440263 -0.12958126 0.98723984 0.092553735
-0.015073253 0.038576953 0.03240254 -0.371231 0.9275962 0.041867517
0.004535103 0.03889968 -0.28973058 -0.24259582 0.97008723 -0.008837007
0.041777667 0.0034520691 0.46876544 0.99209523 -0.08636327 -0.09104097
-0.009687413 0.039803132 -0.16196454 -0.20107175 0.9750232 -0.094339326
0.03310833 -4.891772e-05 0.10716471 0.87354934 -0.48651102 0.014782201
0.01663577 -0.08088104 0.20205472 0.47397432 -0.44603214 -0.75921255
0.0211833 0.034218468 0.4848508 0.10150471 0.86934304 0.48367286
-0.024828885 0.03186457 0.039778348 -0.72357476 0.6871559 0.06524053
0.025217898 -0.1054646 0.21631055 0.81987804 -0.32291278 -0.47278672
-0.00073728885 0.03689732 0.33164322 -0.06532285 0.99766916 0.019729298
0.01645528 0.039245844 -0.17511937 0.27503294 0.9585492 -0.074433245
-0.016901435 0.022156 0.25752923 -0.9547625 0.29355568 0.047471523
-0.02228099 0.016373996 0.3523533 -0.9858017 0.16733629 -0.01391398
0.01848889 -0.038553547 0.39588222 0.40842566 -0.9025385 -0.13642879
0.021186413 -0.11698688 0.22387728 0.54966676 -0.6786853 -0.48708594
0.016096592 0.0007384608 -0.44269702 0.33013463 -0.9437603 0.018101603
0.02420518 0.010718064 -0.17877351 0.39415756 -0.9152123 -0.083822414
0.003446966 0.075403795 0.2214409 -0.25030732 -0.25053713 0.9351884
-0.012749862 0.10457629 0.20269607 -0.9367037 -0.024119375 0.34929144
-0.011049128 -0.043023337 0.2327264 -0.9938298 0.09352033 0.059634943
0.03112937 0.042780943 -0.069887035 0.2987133 0.9539727 -0.026580112
0.044012018 0.021396073 0.032649588 0.8958338 0.41252777 0.16523497
0.04602861 0.025892545 0.011648331 0.80312014 0.5688715 0.17715308
0.024422713 0.07134242 0.21414681 0.9342704 -0.33180454 0.13055493
0.01155543 0.04569961 -0.14684077 0.17446563 0.9737506 -0.14619036
-0.0434159 0.0079534035 -0.032598823 -0.7492422 -0.6612603 0.037027095
0.0060568885 -0.026791839 0.3318789 -0.0490845 -0.96340275 -0.263526
-0.008566541 0.11770723 0.108103454 -0.745696 0.65312654 -0.1317694
0.029551996 0.122422196 0.18674351 0.7762181 0.6202688 -0.1129247
0.019822516 -0.11394943 0.279711 0.53424394 -0.5108773 0.6734893
0.027549854 -0.09575266 0.2658963 0.9515596 0.23881915 0.19364853
-0.0050072772 0.043955997 0.03054503 -0.5686213 0.822289 0.022597387
-0.01240335 -0.012517731 0.31568417 -0.8962814 -0.43773997 -0.071157105
0.027648937 0.04400012 -0.06902985 0.36094302 0.9312532 -0.049876384
0.028555043 -0.012544388 0.23905587 0.7114884 -0.69819343 0.07943666
0.030424194 -0.00817954 -0.08294532 0.52674186 -0.84489095 -0.0932866
0.015431315 0.035681654 -0.22352947 0.5041086 0.86139965 -0.06217072
-0.02644869 0.03414851 -0.17824553 -0.39520073 0.8960294 -0.20235525
-0.02757047 0.035330176 -0.0027996032 -0.39670327 0.9138258 0.08688429
0.050563756 0.03180373 -0.10013296 0.74972075 0.6616801 0.009914701
-0.009315441 -0.021163521 0.22603878 -0.9708078 -0.15982866 0.178849
-0.018350698 0.016722348 0.2831501 -0.997379 -0.051180813 -0.051142763
0.033056427 -0.0015510387 0.26936007 0.8927233 -0.44685486 0.058015574
0.035756998 0.01082652 -0.14588307 0.3627108 -0.92392004 -0.12170718
-0.0105150975 0.009687358 -0.28076154 -0.6412874 -0.7671663 0.014364774
0.031511925 -0.0028546513 0.12049097 0.9628791 -0.26691628 0.0402424
-0.022273047 0.01833084 0.40630308 -0.9231101 0.3830949 -0.03325597
-0.007018652 -0.07379235 -0.048908234 -0.968559 -0.12327934 -0.21609169
0.01768853 -0.0788769 0.12576836 0.9232148 -0.32377884 0.20698236
0.0037469505 3.4121767e-05 -0.42387778 -0.12015273 -0.9926042 0.017326953
0.030402087 0.029027417 -0.19615838 0.4073219 0.8596606 -0.30833817
0.014175937 -0.1162588 -0.015168366 0.7603591 -0.5907367 -0.26997066
0.034272376 -0.04022713 0.46237433 0.98465306 -0.12491463 -0.12187966
0.03652899 -0.011338746 0.38165653 0.95906335 -0.28280485 -0.014795121
0.019653888 -0.108487666 -0.0010992298 0.9417539 -0.31397066 0.120507024
0.02272141 0.02078611 0.4924481 0.14133762 0.05667379 0.9883379
0.053518005 0.024952061 -0.13020813 0.9881115 0.11232652 -0.10496876
0.0026648983 -0.07030965 0.27505544 -0.37691095 0.15048763 0.9139429
0.026975945 -0.040872186 0.012068541 0.99263364 -0.1077514 0.05539034
-0.013382441 -0.037526954 -0.01665586 -0.9826165 0.017287549 0.18484034
-0.007446737 0.03519251 -0.47694957 -0.49021837 0.87093234 0.03410053
0.030397348 -0.018013945 0.33504394 0.8552235 -0.5026126 -0.1263861
0.051603522 0.027514625 -0.13486122 0.85650843 0.49051395 -0.16059062
-0.0038047503 0.035928413 -0.42698938 -0.3057955 0.95209336 0.002716697
0.028412802 -0.050747886 -0.008722843 0.9819356 -0.14400303 0.12274195
-0.010316922 0.12314462 0.17051956 -0.6980915 0.71131545 -0.08184488
0.036188956 0.016481847 0.30750734 0.99694306 0.012215352 -0.07717121
0.0003715509 -0.037535377 0.48670563 0.008252288 -0.13714609 0.9905165
0.031085977 -0.007128624 0.034324054 0.86599594 -0.50000644 0.0066730953
-0.017780358 0.0434743 -0.08302233 -0.20641539 0.9766543 0.059491027
0.019605003 -0.09105578 0.08507994 0.87109005 -0.4851632 0.07628152
0.019305997 0.03866433 0.4402858 0.08497881 0.9957395 0.035796545
0.010320544 0.038537517 -0.23721772 0.45646 0.8897398 0.0027152705
0.03611223 0.04079649 -0.051148985 0.50865704 0.8588179 0.060826797
-0.013488786 -0.011413872 0.14416893 -0.9163273 -0.39660326 0.055227686
0.01347892 0.123088054 0.09970042 0.10818658 0.9717812 -0.20961149
0.017400239 -0.10635424 0.28555018 0.5136674 -0.26415366 0.8163141
0.0017238267 -0.08701121 0.28181127 0.035322715 0.56145453 0.8267534
0.0030238938 -0.12507826 0.030028775 -0.0797622 -0.99510676 -0.058314625
0.01831047 -0.037333842 0.38342726 0.48532614 -0.8716863 -0.06798239
-0.015379157 0.0112958085 -0.40596694 -0.8884029 -0.45774385 0.03479813
0.02914266 -0.026549367 0.36848366 0.82544655 -0.5619157 -0.053747073
0.025457934 0.12172055 0.1310358 0.7087857 0.7000537 -0.08687648
0.010989346 0.047549356 -0.075898774 0.0837501 0.9964863 -0.0009427208
-0.015609602 0.036224913 0.1591519 -0.8920631 0.4517621 -0.011597255
0.013424795 -0.05872562 0.27109244 0.05508378 0.40371954 0.913223
-0.005162482 -0.08129153 -0.051386856 -0.9142019 -0.16094753 -0.37192845
0.017742308 0.046807762 -0.10794504 0.18606064 0.98161894 -0.042493485
0.027622402 -0.018067596 0.11341225 0.9915451 -0.12559228 0.03263493
0.028539231 0.043404683 -0.04384442 0.3804352 0.9242707 0.031506665
0.030555682 0.015239939 -0.38128895 0.9696695 -0.24256533 0.03005064
0.041775122 -0.006423437 -0.05176227 0.52068216 -0.85139686 -0.063352
-0.007826608 -0.09666023 0.013569324 -0.99992996 0.011267827 0.0036237086
0.041621685 0.038170896 -0.060878918 0.6374902 0.7703946 -0.009921464
-0.019536356 0.012281238 0.18229449 -0.9997773 0.020739704 -0.0038901248
0.028689226 0.03589782 0.14108081 0.90570486 0.42282572 0.030284788
-0.019715784 -0.007154976 0.40221918 -0.96229327 -0.27201054 -0.0013875841
0.021512406 -0.070228614 0.19878677 0.8227762 -0.35474977 -0.44406295
0.03698883 0.032620385 -0.1718206 0.48279166 0.851797 -0.20335716
0.017672146 -0.11773521 0.05585446 0.9781638 -0.18924122 0.08592624
0.023170896 0.056261737 0.1611472 0.9998128 -0.01031301 -0.016369615
0.036453806 -0.027046923 0.45810825 0.96391654 -0.2358901 -0.123372376
0.00780062 -0.096883215 -0.050603814 0.18619438 -0.5513996 -0.8131975
0.023358488 0.043889336 0.0015177615 0.39842695 0.9158971 0.048872255
-0.015043175 0.027460694 -0.3719193 -0.84854794 0.52902824 0.009775599
0.012900212 -0.0435772 0.4859766 -0.030581048 -0.16398278 0.9859891
0.029003005 0.0433285 -0.07779496 0.37527823 0.9268602 0.009815078
0.04010241 0.013030443 0.41662076 0.99915737 -0.040782865 0.0046195174
-0.012540524 -0.044507228 -0.011309687 -0.9937615 -0.023586974 0.109003514
-0.0064688097 -0.055171855 0.43728623 -0.845076 -0.4718493 -0.2514056
-0.010051701 -0.03629868 -0.079687 -0.9564299 -0.1595558 -0.24450725
-0.017220367 0.03203006 0.1777368 -0.9719524 0.23313245 0.030948674
-0.004762194 0.036259614 0.4716895 -0.057651713 0.9976928 -0.035851542
0.025016444 0.083820425 0.22043975 0.8576417 -0.122738965 0.49938554
0.025537275 -0.025556192 0.12911855 0.9865265 -0.15139656 0.06200413
0.0358771 0.012067651 0.27697104 0.9978678 -0.06395027 -0.0130489
-0.0059804376 -0.0026473543 -0.13183135 -0.54721475 -0.7920391 -0.27061045
-0.006895373 0.043824304 0.007574766 -0.35968304 0.9318543 0.04770464
0.030095842 0.023559924 -0.33357263 0.9440851 0.32968646 0.0031836368
-0.018287746 -0.037066765 0.4643486 -0.96892005 -0.17165598 -0.17812422
-0.02054028 0.011821853 0.15222654 -0.9982273 -0.0043486618 0.05935809
0.02034516 -0.103149384 0.049148697 0.97998035 -0.17739116 0.09039278
0.028647508 -0.028071374 -0.06820717 0.9862372 -0.07527403 -0.14720722
-0.0071336976 -0.03376 -0.09122557 -0.96128213 -0.13559833 -0.23989516
0.0008878168 -0.12611735 0.04534365 -0.008215255 -0.9998049 0.017963719
-0.022799803 0.011351881 0.3543953 -0.997373 -0.008476818 -0.07193881
0.054121185 0.021446887 -0.12841517 0.9832145 -0.15988337 -0.0879006
-0.021025237 -0.004411733 0.026178598 -0.57476723 -0.818296 0.0058497875
0.053542424 0.0233473 -0.13171431 0.98161817 0.12810944 -0.14147009
-0.011224329 -0.043554716 0.09325708 -0.9791545 -0.15935764 0.12594274
0.0019493537 0.047319986 -0.0010445954 -0.18281335 0.9828429 0.024475092
-0.007362969 -0.0632192 0.10269086 -0.99174774 0.0094277775 0.12785761
-0.014993545 -0.0050213393 0.24332762 -0.95999336 -0.2795049 0.017021367
0.023229402 -0.08781798 0.27165523 0.7512102 0.45068368 0.48225245
-0.012107516 -0.063768275 -0.022131436 -0.96408033 -0.2428295 0.10762347
-0.008993013 -0.11355733 0.27570173 -0.8631159 -0.35323006 0.3609148
0.023035994 -0.07885985 0.09976313 0.93610275 -0.27841973 0.21492825
0.0062297513 0.0019971228 -0.23497984 0.31589872 -0.9481618 0.034601286
-0.019940035 0.022796815 0.4027729 -0.85626 0.5118275 -0.06965213
-0.00904653 0.00864755 -0.27382112 -0.6928123 -0.7201608 0.037142083
-0.012004082 -0.029991 0.41697592 -0.940095 -0.3302583 -0.08456208
0.019987956 -0.05461066 0.16448905 0.87220633 -0.4886996 -0.020708513
-0.007494729 0.045197736 -0.026482146 -0.50593597 0.86076856 0.05573433
-0.016558876 0.026935475 0.36684644 -0.6891635 0.7245522 -0.00882252
0.022947801 0.056981586 0.15043809 0.98645025 -0.15961179 -0.037946183
-0.026199304 0.040620178 -0.11160554 -0.35711396 0.9340605 0.0007268843
0.029211866 0.020534176 -0.24036919 0.99903136 -0.042271636 -0.012225695
0.034726117 0.008172117 0.21866359 0.99612004 -0.0878688 -0.0048942664
0.00069563487 0.037635956 -0.27754912 -0.45893475 0.88846874 -0.0014915939
-0.0113402 -0.06610099 -0.039696805 -0.9384621 -0.2593315 -0.22811432
-0.006194023 -0.025419842 0.3411391 -0.71697813 -0.6622614 -0.21760538
0.012599088 0.03701246 -0.29878783 0.520296 0.85396945 -0.0053191883
-0.017601062 0.016623866 -0.41207594 -0.9271534 -0.373035 0.035092223
0.016077582 0.0053368923 -0.16910881 0.592192 -0.7778794 -0.21026714
0.025936829 0.005854516 -0.45246232 0.672015 -0.74046254 0.010541252
0.024251113 0.06336966 0.16731933 0.9851954 -0.17137493 -0.004554965
0.025849395 -0.041688766 0.108556725 0.97248715 -0.18835723 0.13707748
0.033541106 0.008624881 -0.14060315 0.50593746 -0.8406314 -0.19330314
0.044933766 -0.0038873916 -0.039167047 0.73566854 -0.66205686 0.1430823
-0.008111304 -0.04560905 0.11176302 -0.9936116 -0.109752715 0.026274549
0.027778551 0.035528548 0.32988 0.43719894 0.8992897 -0.011622595
0.029523168 0.034636807 0.42841193 0.6227991 0.78231585 -0.010158551
-0.013169535 -0.02236408 0.102008276 -0.9770399 -0.20065276 0.07163508
-0.023482108 0.01385407 0.43221074 -0.9670934 0.25410256 0.01273501
-0.05069153 0.021829657 -0.06613267 -0.9535278 0.2962024 0.055216037
0.017490016 0.03493156 -0.21760605 0.47664315 0.87614745 -0.07195168
0.00035098952 -0.07379455 0.46683422 -0.06466798 -0.8780857 -0.47411346
-0.03193495 0.007651474 0.053487767 -0.8609984 -0.47475365 0.18245748
0.015601609 0.035467565 -0.32232013 0.42695463 0.9042723 0.0011728385
0.019224735 -0.10857656 0.005490453 0.9607109 -0.2757558 0.03151746
-0.0023090332 -0.11094285 0.2859012 -0.079401486 -0.35104328 0.9329866
0.0046728165 0.0014835598 -0.32316026 -0.42076048 -0.9071028 -0.011183763
-0.031942006 0.0381982 -0.081931464 -0.36833048 0.929313 0.02664458
-0.0015558777 0.07389976 0.22116375 0.1326098 -0.23996547 0.9616815
0.031134462 0.0386943 -0.15168098 0.24583052 0.96131927 -0.1242281
0.015538862 -0.060642645 0.16569844 0.664328 -0.7411469 0.096796684
0.030195652 0.01741197 -0.35376325 0.9427434 -0.3333646 0.010141511
-0.027662097 -0.0072854734 -0.075649284 -0.012244257 -0.9999248 0.0006713362
-0.015862009 0.026601315 -0.477513 -0.89369845 0.4486629 -0.0021818809
0.0042313193 0.038802322 -0.29162267 -0.24257626 0.970009 -0.015467215
0.029779734 -0.03834405 0.21759121 0.99569976 0.08526409 0.036220524
-0.021095179 0.030428296 0.08651068 -0.7748829 0.6299574 0.052060682
-0.010851316 -0.062410638 0.23519728 -0.9958778 -0.07714953 0.047699895
-0.02324576 0.008211882 -0.16011241 -0.176745 -0.96995145 -0.1671988
0.023644838 -0.048613425 0.18344408 0.9525983 -0.18364146 -0.24255383
0.03347299 -0.00037261005 0.24046032 0.9703247 -0.23144498 -0.07002388
-0.016725983 -0.02841651 0.44911614 -0.92105883 -0.29743698 -0.25136012
-0.01124953 0.10914123 0.10412808 -0.96978444 -0.11528916 -0.2150037
0.002999597 0.03961893 0.24820378 0.006377001 0.9974299 0.071364574
0.032224957 -0.051804036 0.46728787 0.95929146 -0.262438 -0.104337
0.025715059 0.12391712 0.1580526 0.64833075 0.7607836 -0.029590415
0.029486485 -0.040261626 0.20896478 0.9844297 0.07145943 -0.16059776
0.035263695 0.02792311 0.4133161 0.8627478 0.50541097 -0.015033844
-0.028968794 -0.0011886788 -0.008627367 -0.3010529 -0.94974047 0.08579198
0.034545988 0.040850926 -0.09678186 0.38297206 0.92374885 -0.0045171725
-0.017242376 0.03208504 0.20563415 -0.9662287 0.24751262 0.071690135
-0.012403673 -0.013268342 0.034195706 -0.88094854 -0.4713379 -0.04207411
0.016931677 -0.0988531 0.08635057 0.9192834 -0.38131034 0.09757287
0.025342349 -0.033229083 -0.08323727 0.92139965 -0.18482654 -0.3418506
-0.017079895 0.013925909 -0.4415448 -0.9767656 -0.21376523 0.015276866
0.0075999945 0.0005169737 -0.2779677 0.24995893 -0.9682197 0.008435874
0.043071464 0.03412154 -0.14599699 0.46357536 0.87827927 -0.1171472
0.03287854 0.030300409 0.31879032 0.7845637 0.6185402 -0.04321709
-0.014298367 0.09494509 0.17648 -0.9622712 -0.2720287 -0.0058732373
0.008853655 0.03968735 -0.430273 -0.08151493 0.9966721 0.00036499221
0.01895951 0.03759692 0.31671527 0.071754925 0.99650997 -0.042651527
-0.017734196 0.02990528 0.17813526 -0.9651176 0.25954005 0.03445432
0.047700375 0.0034728865 -0.0037899532 0.80907923 -0.58203584 0.08139434
-0.014611383 0.012832831 -0.2899678 -0.5816313 -0.81343824 -0.0048279944
-0.02117443 0.002205756 -0.12842783 -0.074569054 -0.9825005 -0.17068128
0.025442636 -0.027200544 0.12642902 0.984322 -0.166201 0.059053898
-0.029825736 0.023515105 0.05057731 -0.7839514 0.6074475 0.12817053
0.026549952 -0.11385633 0.23153143 0.9399257 -0.2997648 -0.16334249
-0.050117195 0.017393518 -0.06759771 -0.75524867 -0.65403676 0.04284114
-0.012971197 -0.007052893 0.28752083 -0.8049333 -0.5906464 -0.056738123
0.018883713 -0.12922275 0.2472789 0.3869979 -0.9091406 -0.15393491
0.004802961 -0.09622516 0.20603606 -0.20565124 -0.44288787 -0.87267286
-0.007965431 -0.08286512 0.023883864 -0.9980783 -0.013295324 -0.060521897
0.021952687 0.04634454 -0.09973681 0.31378004 0.9486939 -0.039012603
0.0451286 -0.00020393357 -0.017585726 0.66353905 -0.74636316 0.051555496
0.02835781 -0.028981298 0.0075722844 0.98974997 -0.10783103 0.09363479
0.030856406 -0.0066953623 0.27836782 0.7886206 -0.61275464 -0.05108176
0.022246042 0.0057978975 -0.15340441 0.4780694 -0.86153626 -0.17089435
-0.008484981 -0.09910941 -0.015318776 -0.99961823 -0.017807836 0.021125354
-0.011730726 0.0378089 0.22965549 -0.51740795 0.84687996 0.12281414
-0.01249467 -0.03555726 0.070910715 -0.9958707 -0.08244471 -0.038004648
0.004127456 0.102329016 0.08002691 -0.06935967 -0.54366165 -0.83643365
0.026714869 -0.011924281 0.26543528 0.7684041 -0.6388451 0.03784175
0.03404755 0.03029294 0.44745967 0.8144026 0.5798248 -0.023486648
0.02975205 -0.043581787 0.22379419 0.98125404 0.123465285 0.14797567
0.042449336 0.03166402 0.016512316 0.9055257 0.40773252 0.11737733
0.017200848 -0.11324762 -0.011098791 0.7625785 -0.6468854 -0.0036570898
0.04105123 0.012359679 0.45891047 0.9966655 0.055210132 -0.060080945
-0.023666196 0.010155805 0.42571765 -0.99960095 0.008312722 0.02699728
-0.007705231 -0.10425272 0.020121815 -0.9976737 -0.06708144 -0.012140576
-0.01684518 0.0018075877 0.24788412 -0.96079296 -0.27330172 0.04672313
0.021386294 0.031713787 -0.3160259 0.5580395 0.82971215 0.013027553
0.03336124 0.025511794 0.12165588 0.9504847 0.30716708 0.04719356
-0.01578758 0.024220731 -0.25766987 -0.846697 0.53206664 0.0030554784
0.017888708 0.061178956 0.10866552 0.9464853 -0.123639844 -0.29812554
-0.0107949525 0.032076996 -0.44757852 -0.6386209 0.769506 -0.004896301
0.018131372 0.040237494 0.23881441 0.17974989 0.97067314 0.15963615
0.04308328 -0.0054910844 -0.05407211 0.4264634 -0.90029633 -0.08715247
0.05325405 0.014688592 -0.016011221 0.987615 0.14468524 0.06068612
0.025218071 -0.022846172 0.15042469 0.96028095 -0.27615222 -0.040005326
0.027413992 0.03567291 0.4448588 0.4434809 0.8947163 0.05298453
0.019968223 -0.059574567 0.13700107 0.9744534 -0.20752634 0.08586835
-0.010529932 0.03331996 0.47973645 -0.3921724 0.83096194 0.39459234
0.007875797 0.046702467 -0.14071344 0.06741342 0.9957192 -0.063235216
-0.016406545 0.035123263 0.10884755 -0.72816247 0.6854024 -0.0017047209
0.037327684 0.023957588 0.42145386 0.925349 0.37707764 0.039263576
0.0033182935 -0.084516235 0.2800674 0.02405273 0.5616426 0.8270303
0.04440442 -0.0019555702 -0.08935812 0.17624296 -0.9529718 -0.24654227
-0.01636144 -0.038894672 -0.033918202 -0.98118824 -0.16912831 -0.093086824
-0.019033832 0.039688196 -0.15134332 -0.10651431 0.99169225 -0.07211922
-0.044013448 0.026599418 -0.023077825 -0.7356067 0.66146517 0.146105
-0.0052783214 0.0052757584 -0.29391655 -0.46832627 -0.8834839 -0.011256547
-0.011082393 0.08514266 0.12633611 -0.95554954 -0.2925 -0.036998093
0.015677096 0.038531203 0.41597274 -0.021180188 0.99645716 -0.08139092
0.010666427 0.09143988 0.08332796 -0.2387578 -0.5403598 -0.8068494
-0.020140387 -0.005631675 0.40250808 -0.9690976 -0.24667361 -0.0013973957
0.016299091 0.034724336 -0.28089926 0.56327677 0.82613254 -0.01497567
0.035028532 0.012042872 0.24172089 0.9979753 -0.049521115 -0.039912313
0.053629562 0.016533101 -0.025290014 0.9716043 0.21133757 0.10640265
0.026909837 -0.053114083 -0.057629343 0.93501943 -0.31315216 -0.1663563
-0.013433735 0.030658973 -0.42817423 -0.6144071 0.7881959 -0.03537116
-0.010565372 -0.030856848 0.024172045 -0.9999478 -0.0051266854 -0.008842006
-0.006671549 0.12634118 0.2139781 -0.87702614 0.42502657 0.22400352
0.03327751 0.10595139 0.15333965 0.9931975 -0.11258548 0.029718265
-0.0043284786 -0.07365678 0.2008625 -0.84160334 -0.3401998 -0.4194854
0.0065261396 0.08431061 0.09118248 -0.18211888 -0.7453883 -0.64127135
0.035636812 -0.024450164 -0.02129689 0.98062426 -0.111834496 0.16083878
-0.035386555 0.033946037 -0.01971183 -0.49102893 0.85364515 0.17372556
-0.009351605 -0.064620376 0.025664868 -0.9961217 -0.08717737 -0.011901296
-0.01913595 0.0026907164 0.3364447 -0.96557826 -0.25687954 -0.040885616
-0.008883519 0.071031295 0.20208831 -0.991167 -0.086917676 0.100166306
-0.014696985 0.029568441 -0.4233057 -0.7184979 0.6955028 -0.0060491427
0.0057265516 0.03914187 -0.29714462 -0.24853896 0.9686161 -0.0033402597
-0.009275173 0.045035683 -0.118753605 -0.30228442 0.9494698 -0.08444645
-0.009730861 0.034864858 0.25455594 -0.68956596 0.71522343 0.1138163
-0.007871573 -0.048459496 0.2531987 -0.9502639 0.15849091 0.26810274
-0.00021935278 -0.014337231 0.27146918 0.1216393 -0.99206686 -0.03173627
0.026395414 0.03874549 0.09126009 0.6008497 0.7993218 0.008013221
-0.011125853 -0.037802838 0.22356291 -0.9967676 0.07636673 0.02495113
0.0077950107 -0.0718795 -0.067175165 -0.26060054 -0.49578908 -0.8284205
0.0048479727 0.016723936 0.4919699 -0.111848116 0.04518458 0.9926975
0.030854689 -0.005551939 0.11658637 0.96036375 -0.27791288 0.021585323
0.010809515 -0.0780427 -0.064187944 0.7806761 -0.20452008 -0.5905221
0.017852034 0.0367537 0.39220652 0.1175853 0.9927944 -0.023086833
-0.015214155 0.10694082 0.19014871 -0.99700916 -0.024158485 0.07341107
0.022727676 -0.04532921 0.1431465 0.9863759 -0.1443532 0.07889683
-0.014322217 -0.042757034 -0.02154769 -0.9797994 -0.060026467 0.19076157
-0.016552692 0.009923616 -0.17770739 -0.08913673 -0.98062855 -0.17441969
0.038052555 0.007948808 0.33524242 0.9979064 -0.047096625 -0.04432534
-0.007125874 -0.06463588 0.26160482 -0.9789619 0.053424947 0.19692466
0.01840855 -0.08706426 0.10290474 0.85705787 -0.452618 0.24614781
0.027537657 -0.08050551 0.2304743 0.9997915 -0.01118236 0.01708628
0.029542617 -0.01834327 0.2129599 0.9841023 -0.1486768 0.09714888
0.02107778 0.04692778 0.1109032 0.8644668 0.49071234 -0.10908046
-0.007555941 -0.0746795 0.26175547 -0.9846988 0.05590918 0.16505304
0.02610921 -0.0774258 0.07396133 0.97741157 -0.21113914 -0.009321323
-0.016934026 0.022594383 -0.28016037 -0.8780611 0.47854838 -0.00046223614
-0.0020708526 0.12485037 0.12485952 -0.53020215 0.8422607 -0.09737868
-0.001604175 0.036433652 0.40507036 -0.17079622 0.9818685 -0.08223688
0.0073439465 0.054805893 0.10309686 -0.18981913 0.89073366 -0.41299185
0.014251361 -0.117892504 0.2185718 0.4930895 -0.6448346 -0.5839958
0.027530743 0.038365267 0.18646291 0.88991666 0.45026773 -0.072851606
-0.013265141 0.012150776 -0.23686874 -0.48102155 -0.8766958 -0.0047623245
-0.012304315 -0.108078435 0.25670788 -0.9962295 -0.07431894 0.044760097
0.03446187 -0.019010797 0.39868286 0.9332493 -0.35868353 -0.019793954
-0.014105822 -0.029225286 -0.065551 -0.9926411 0.051217895 -0.10972883
0.025624951 -0.05022532 0.024957644 0.9893444 -0.14186081 0.032758746
0.0020123157 0.038329408 -0.2629392 -0.22636504 0.9740043 -0.008634895
-0.009554192 0.066354 0.16345285 -0.9939071 -0.110145815 -0.0040796055
0.014172511 0.00076647964 -0.15400934 0.6214254 -0.7677597 -0.15612692
-0.027772617 0.025487034 0.056887627 -0.8374076 0.53064394 0.13101743
0.018852718 0.041157704 -0.15704402 0.40089333 0.877165 -0.26432192
-0.011249514 -0.097971626 0.23059964 -0.99512446 0.0071898107 -0.09836451
0.0033078454 -0.13071617 0.24419525 -0.09830161 -0.9898176 -0.10294589
-0.010785379 -0.03877456 0.43008024 -0.96899664 -0.2173648 -0.117465116
-0.021132873 0.014791641 0.14043063 -0.9873493 0.1364882 0.08069971
0.026090415 0.12107139 0.13067786 0.6940844 0.7165484 -0.06931941
0.015701577 0.04427192 -0.14742358 0.39913493 0.89574575 -0.19578248
-0.014680482 -0.0036476974 0.28596222 -0.9272929 -0.37232643 -0.038740966
-0.018429605 0.025496352 0.41445932 -0.72896594 0.68427724 0.01932089
0.049115043 0.032505825 -0.08131743 0.7900859 0.6124688 0.025419846
0.018831566 -0.05769367 0.17961285 0.7923845 -0.58124644 -0.18514684
-0.047481112 0.014049715 -0.0658901 -0.82203215 -0.5684967 0.032781694
0.020692741 -0.08835766 0.00747947 0.99305093 -0.117464155 -0.007212711
0.037407514 -0.020507058 0.48355097 0.8275523 -0.11451904 0.54958403
-0.02072931 -0.0046019545 0.03314614 -0.6013101 -0.798986 0.0069004223
0.014567583 0.036904577 -0.4910393 0.383501 0.8244927 -0.41609946
0.028201923 -0.090552926 0.2516752 0.9872973 0.15845326 0.01169041
-0.0019690804 -0.08114282 -0.06174013 -0.94970906 -0.05640566 -0.30801162
0.010390959 0.12892255 0.1696137 0.05525691 0.9973332 -0.0476783
0.028969923 -0.042939812 -0.05811567 0.9748584 -0.15311961 -0.16188106
-0.015217895 0.013122795 -0.32592976 -0.703309 -0.7108652 0.005210213
0.029744446 0.08386943 0.14786728 0.93830657 -0.34576726 -0.0050826846
0.0533501 0.01643955 -0.021856355 0.980335 0.1820477 0.076169826
0.026750702 -0.09404502 0.26789638 0.9538787 0.21558917 0.20889385
0.010421524 0.029823635 -0.4991337 0.053111244 0.14121014 -0.98855394
-0.01992249 -0.011550202 0.4382765 -0.94798666 -0.30493215 -0.09131113
-0.03145171 0.03844273 -0.06531224 -0.36219633 0.93210155 -0.0007111371
-0.008447885 0.0023123925 -0.14774087 -0.38601717 -0.89648247 -0.21750867
0.022525134 0.004871914 -0.4059442 0.5617516 -0.8270684 0.019826118
-0.03453853 0.029085094 0.009073778 -0.7704001 0.6140535 0.17152852
-0.0058595017 0.036142513 0.31595343 -0.5339102 0.8454223 -0.014177233
0.026258487 -0.04440195 0.10317993 0.9815281 -0.14226586 0.12791796
0.0050084875 -0.031943154 -0.11287281 -0.061099168 -0.8795596 -0.47184932
0.030969 0.024891518 -0.4476456 0.95961785 0.28121126 0.007335946
0.03505612 0.010428699 0.14147246 0.9983739 0.052008796 0.023338452
-0.022959847 0.008505495 0.36038223 -0.9940362 -0.10494593 -0.02963786
0.03716241 -0.0081450865 0.37963897 0.99156827 -0.12947199 0.005415081
0.023623459 -0.027606556 0.34262425 0.37574396 -0.88433516 -0.27706993
0.03263088 -0.038198024 -0.037339214 0.98236305 -0.00089938025 -0.18698116
0.011831605 -0.00094948476 -0.4657937 0.19019441 -0.9815404 0.02011427
0.0009177325 -0.041470673 0.39897332 0.0034323903 -0.9689603 -0.24719244
0.0066486597 0.03906142 -0.29416507 0.15852007 0.9873381 -0.0059057088
0.024878012 0.03674054 -0.1736161 0.3492373 0.91315246 -0.21020451
-0.0077696526 -0.10376656 0.02338328 -0.99887323 -0.047157496 -0.005326938
-0.010264111 -0.056751307 0.45110968 -0.8658982 -0.4318687 -0.25240785
0.03431769 -0.034592483 -0.032453444 0.9453528 -0.32601804 0.0045150057
0.01967085 -0.10635721 -0.013212932 0.96151143 -0.27321267 -0.02916694
0.0024372549 0.038462747 -0.25900993 -0.22797413 0.97364044 -0.0072202953
-0.013975976 0.10857946 0.19922905 -0.9667309 -0.03803582 0.25295204
0.034127057 -0.0026436707 -0.09773627 0.46126756 -0.80282074 -0.3777712
-0.015769036 0.025697958 0.25797504 -0.9374127 0.34492856 0.047767483
-0.008271652 -0.07709587 0.024543222 -0.9946648 -0.07915763 -0.06615061
-0.007567101 -0.11699761 0.045951504 -0.998452 -0.052492775 -0.018388849
0.027391579 -0.030943831 0.038409647 0.99705213 -0.07291978 -0.023870464
0.03757774 -0.0048127966 0.35926 0.9969451 -0.07747561 -0.009903125
0.024154607 0.0098918285 -0.3052183 0.6247767 -0.7804995 0.021783674
-0.0101650255 -0.037132926 0.01508852 -0.9931954 -0.11008562 0.03800106
0.034166656 0.004551181 0.22203839 0.96601504 -0.2582339 0.011408931
-0.011944413 0.031772006 0.35272065 -0.6748618 0.7377187 -0.01824215
0.041825987 0.0375515 -0.048458412 0.6654185 0.743367 0.06799786
0.021850122 0.036902055 0.40405217 0.34459677 0.93649155 -0.06508971
0.036616184 -0.013685925 0.43469995 0.98854417 -0.12673566 -0.081966385
-0.011923346 -0.0968378 0.25342768 -0.99675393 0.08035051 -0.0050342646
0.03940539 0.005281289 0.42493886 0.99566805 -0.092918485 -0.0033575841
0.009641515 -0.06775083 0.18496697 -0.14223935 -0.85733443 -0.49471766
0.009988906 0.04039885 -0.4732646 0.14955314 0.9887132 0.008946334
0.026960583 0.038887575 0.10988048 0.72167623 0.69063616 -0.046958536
-0.005060018 -0.118841775 0.2773408 -0.23518388 -0.753521 0.61391747
-0.013520471 -0.060899768 -0.028448738 -0.94567084 -0.30635795 0.108864605
-0.005004696 -0.031614788 0.36043096 -0.5067387 -0.83820367 -0.20156997
-0.047997825 0.017595937 -0.11850379 -0.9998028 0.017994193 0.0083983075
-0.011280759 -0.048442405 0.2342674 -0.9995489 0.021070508 0.021398425
0.012810481 0.0039038472 -0.2519618 0.44130874 -0.89587736 0.051481236
-0.018011488 -0.049123168 0.47440228 -0.9432414 -0.23233975 -0.23730555
0.05515726 0.017823748 -0.055065345 0.9665299 0.25592336 0.017977905
-0.0122755105 0.028112676 -0.2574131 -0.75643665 0.6539693 0.01130569
-0.016613932 0.032709595 0.21334924 -0.96820647 0.24726672 0.037887048
0.024640972 -0.025967462 -0.09694819 0.77376354 -0.46351165 -0.43179497
0.029425623 0.026283564 -0.37388226 0.78533524 0.618871 0.015722964
-0.008486589 -0.095879264 -0.013180599 -0.9999644 0.0007247667 0.008407294
0.04059403 0.021730782 -0.2003796 0.7529507 0.6139456 -0.23693027
-0.008936805 0.0078087887 -0.31141174 -0.5668271 -0.8235707 0.02093611
0.026050756 0.037597682 -0.16750519 0.26589733 0.949343 -0.16747063
0.025707988 -0.064489245 0.033503808 0.9968764 -0.037343316 -0.069590904
0.03122092 0.021317845 -0.37619364 0.99643856 -0.08300107 0.014869948
-0.018429514 0.03032938 -0.2020703 -0.23683617 0.9538652 -0.1845261
0.03768693 0.0005866522 0.34686553 0.9829796 -0.16984956 -0.0700157
0.0017980463 -0.113877155 0.21662939 -0.29842752 -0.64362794 -0.70475817
-0.019658452 0.009156068 0.3151865 -0.97137326 -0.23098573 -0.055493493
-0.012850335 -0.034767702 0.08296562 -0.99394745 -0.109539576 -0.008333956
-0.021063915 0.017011818 -0.2219165 -0.38357443 -0.9179118 -0.10153111
-0.015131196 -0.009120533 0.33113587 -0.95472175 -0.29691562 -0.018639626
0.026245926 -0.11539294 0.232657 0.91933626 -0.35702556 -0.16538963
-0.011703095 0.11989478 0.14892288 -0.74557596 0.6642113 -0.05422081
0.013880781 0.03899361 -0.45053738 0.28884062 0.95704836 0.02508864
-0.0130124055 0.038970765 -0.16851611 -0.10462252 0.99168956 -0.074873045
-0.011521254 -0.029412303 0.0017854081 -0.9972582 -0.048146438 0.056196205
-0.01289267 -0.03907616 0.44313726 -0.9554043 -0.23095693 -0.18401475
-0.0049394546 -0.080771305 0.11371887 -0.73368305 -0.5782128 0.35690215
-0.013019121 0.0898521 0.1614651 -0.979062 -0.20327906 0.010733888
0.012835423 -0.057187006 0.43187147 0.11321759 -0.90812415 -0.4031034
0.049526002 -0.00028908788 -0.057031177 0.87472594 -0.48389316 -0.02649431
0.00909288 0.0009796417 -0.35806304 0.08086032 -0.9964765 0.02227536
0.01682062 0.037368983 -0.42371476 0.41587096 0.90920806 0.019798543
0.0008590744 -0.020728007 0.24761076 0.045607235 0.10594702 0.9933253
0.020364583 0.008109592 -0.2618684 0.43848118 -0.89764476 0.044364493
0.038800586 0.013224758 0.37781152 0.9986062 0.05256945 -0.004708394
-0.009673667 0.080966026 0.12298963 -0.9517464 -0.30522677 -0.03186587
-0.0112898685 0.11681932 0.12637739 -0.83282685 0.5468349 -0.08585477
0.02757928 -0.005443182 -0.10122205 0.66271085 -0.7107411 -0.23592691
-0.009498997 -0.036196623 0.41856238 -0.8539871 -0.4894668 -0.17643239
-0.017289594 0.022750417 -0.40412867 -0.9560259 0.2922445 0.024650997
-0.004363117 -0.08924841 -0.04852018 -0.8756414 -0.28476116 -0.39008105
0.03185484 -0.032862086 -0.047011044 0.9470424 -0.2878439 -0.14232515
-0.010507543 -0.03353008 0.02004837 -0.9953643 -0.09564677 0.010077274
0.017969232 0.008558875 -0.20884848 0.4743795 -0.8798289 0.029414443
0.013615799 0.08839906 0.084607445 -0.24897295 -0.61628 -0.74713546
0.04642716 0.03444028 -0.072196566 0.5815161 0.8135173 0.0053594317
-0.041678235 0.03130466 -0.041496355 -0.60455346 0.79501647 0.049638398
-0.018178921 0.012607768 0.28226724 -0.99974847 0.0027077538 -0.0222646
-0.016438313 -0.024491472 -0.035461035 -0.9988118 -0.04862532 -0.0032767414
-0.016513487 -0.005898726 0.3406285 -0.9464248 -0.32184595 -0.026369806
-0.017967876 0.022725957 -0.23958722 -0.74509674 0.66387564 -0.06403134
0.047145005 0.0029669583 -0.10140412 0.27748114 -0.85798556 -0.43227884
0.029209955 0.034156177 0.41394252 0.47641146 0.87823415 -0.041676454
0.022195524 0.0036576898 -0.4467116 0.49379933 -0.8694689 0.01363852
0.00539293 -0.040690422 0.48627296 -0.0044406443 -0.12070596 0.99267834
0.01172719 -5.4457632e-06 -0.42615083 0.16733478 -0.98565996 0.021762846
-0.04277591 0.0043057115 -0.11221419 -0.84036887 -0.5394384 -0.052785926
-0.006338803 0.043550905 0.019522343 -0.36146313 0.931898 0.030174065
-0.02560023 0.0047853705 -0.14155796 0.20066893 -0.96154416 -0.18752283
0.030763969 0.029940875 0.15975218 0.9469652 0.3206209 0.021428673
-0.035435226 0.020492975 0.03351258 -0.74927247 0.6316074 0.19915548
0.018575862 -0.06628715 0.26868442 0.7970171 0.15925525 0.58258176
