ply
format ascii 1.0
element vertex 683
property float x
property float y
property float z
property float nx
property float ny
property float nz
end_header
-0.0046234997 0.072333895 -0.37259567 -0.49719837 -0.86566246 -0.058500618
-0.016659686 -0.087911494 0.053894717 -0.97641605 -0.083948 0.19890812
-0.02466366 0.09915654 0.2075879 -0.8581443 0.5048835 0.09317208
0.000286359 0.038990594 0.26980764 -0.03488865 -0.999328 -0.011238171
-0.029523924 0.09410858 -0.0024175013 -0.96842366 0.24903727 0.01166642
-0.02702688 0.067986794 -0.059365857 -0.9968878 -0.072732836 -0.03040739
0.02540236 0.06027287 0.24912047 0.9862667 -0.01614783 0.16436942
-0.008307986 0.037885353 0.2918077 -0.10817678 -0.98547035 -0.13094293
-0.022085326 0.10574454 -0.08709933 -0.78961146 0.6135827 -0.0054864413
0.009058703 -0.029620498 0.2215689 0.40850395 -0.4994445 0.7639893
-0.004679185 0.038641624 -0.04542256 0.022946807 -0.9952627 -0.09447524
0.01614727 0.08002488 0.3990135 0.9983206 0.0565912 0.012384562
0.02219894 0.08942816 -0.1802368 0.9949302 -0.06039173 -0.08041604
-0.015196675 0.08463903 -0.43234736 -0.9990528 -0.043484468 0.001631144
-0.003710187 0.00020370074 0.15512747 -0.6334372 -0.67859066 -0.3718494
0.019189443 0.0041046217 0.16335225 0.9617521 -0.20844615 -0.17771634
-0.00585791 0.03852059 -0.04441344 0.039008208 -0.99511164 -0.090725586
-0.013959272 -0.02728875 0.08670644 -0.8855343 -0.178919 0.42873892
0.015944835 0.045771666 0.37828538 0.87091947 0.47034383 0.14239353
-0.0029053767 0.011474051 0.027548902 0.31951267 0.14384286 -0.9366007
0.019131176 0.04666434 0.2998038 0.9932261 -0.11083165 0.03490295
-0.010050383 -0.08303698 -0.035967007 -0.98146176 0.0130590005 -0.19121252
-0.021475475 0.046195995 -0.04161659 -0.6804808 -0.73151845 -0.04273963
-0.02398899 0.1026103 0.12092576 -0.86656463 0.49904227 0.004746959
0.018800016 -0.087991334 0.0646466 0.93429005 -0.15772988 0.3197239
-0.008235784 0.020137135 0.20680667 -0.061418463 0.01146742 0.9980462
0.02979695 0.09165531 0.11214745 0.9698536 0.2315123 0.076065786
-0.019719433 -0.03713417 0.039849892 -0.9999156 -0.011534671 0.0059809405
0.0023068269 0.020889832 0.48678887 0.03002218 0.23856302 0.97066283
0.01023326 0.11316232 0.07775217 0.07589052 0.9971053 -0.0046556736
0.019159086 0.047706075 -0.109973855 0.8009276 -0.5962673 -0.054592036
-0.017682657 0.09999438 0.24119155 -0.72688013 0.644016 0.2385134
-0.022994855 0.04928386 -0.054449126 -0.95038384 -0.3091184 -0.034876604
-0.017961066 0.10839095 -0.11064826 -0.48368248 0.8748678 -0.02564424
0.021187462 -0.019191844 0.043434322 0.9941849 0.04572255 -0.09749796
0.021339731 -0.06545568 0.061288856 0.9662855 -0.05243817 0.25207663
0.0061706775 -0.03039132 0.014120544 0.027971858 0.4061348 -0.913385
-0.025795264 0.057946824 -0.06107841 -0.9782988 -0.19494024 -0.07021222
0.013221829 0.04091811 -0.053637043 0.20595062 -0.9758953 -0.07219983
-0.023575021 0.049125817 -0.041636255 -0.90690905 -0.41840205 -0.049555074
-0.019488968 -0.039485127 0.05110437 -0.99982905 -0.0061940094 0.017422559
-0.019971216 0.019483257 0.06735189 -0.9995593 -0.02867388 -0.00768704
-0.01404526 0.08127176 -0.39478981 -0.95969963 -0.2786419 0.036542386
-0.007493975 0.057403576 0.34895766 0.27440467 0.86932266 0.41107202
-0.0008873823 0.01673437 0.20657691 0.09413914 0.282665 0.954588
0.0036367825 0.08451978 0.42530167 0.09132603 0.9886262 0.11949017
0.016644796 0.038664665 0.3937991 0.9502604 0.3033798 0.07046914
-0.0146939345 0.039539974 0.33768523 -0.9402687 -0.34036246 -0.0069369497
-0.00812078 -0.116038166 0.024519613 0.040746022 -0.97262114 -0.2287966
0.019594371 -0.049064595 0.022641888 0.9911145 0.065710336 -0.11564716
0.02848616 0.08650346 0.21538118 0.93903136 0.33489957 0.07786097
0.02043354 0.051736735 0.2916728 0.9857384 -0.14847143 0.07922186
-0.019150281 0.100862846 0.23333797 -0.7848135 0.5728783 0.23638572
-0.021788225 0.034818985 0.06570939 -0.90215683 -0.4294777 -0.040768143
0.026546137 0.0666812 -0.072389886 0.9968413 -0.062302582 -0.049251895
-0.020446965 0.09497025 0.24447332 -0.77885544 0.56944686 0.26289648
-0.0061968737 -0.06844779 -0.02380706 -0.095672764 0.9582044 -0.26961294
0.032711573 0.084529854 0.064143896 0.98784804 0.15379354 0.02244424
-0.024587957 0.04226622 0.20239653 -0.952987 -0.2947244 0.070379265
-0.029724484 0.09107779 0.01520404 -0.95822585 0.27730152 0.07005096
0.01953517 0.08165294 -0.2026202 0.9795784 -0.19437312 -0.051433243
0.0118065085 0.10026471 -0.47750333 0.75671244 0.6536929 -0.008475142
0.011043187 -0.044049904 0.08585358 -0.13378629 -0.06423734 0.98892605
0.019172903 0.020547701 0.4558964 0.993643 0.100704595 -0.050321978
0.020838613 0.053686798 0.28861174 0.99676234 -0.010053405 0.07977323
0.02055884 -0.0071740444 0.47822466 0.9965509 -0.06879267 -0.0464092
-0.026088912 0.07205789 -0.08953129 -0.9809222 -0.19321036 -0.021478629
-0.014111019 -0.015524865 0.018597137 -0.91200244 0.10727556 -0.39590842
-0.006450815 0.07183904 -0.332712 -0.6051416 -0.79561776 -0.028213656
0.017291754 0.11102364 0.09726257 0.5471441 0.83700436 -0.007548059
-0.008677407 -0.05828284 -0.0053900676 0.3063804 0.87661844 -0.37104064
-0.0177124 0.04181735 0.2709371 -0.8887319 -0.44995856 0.08770937
-0.011566715 0.083694175 0.42200002 -0.40943366 0.87691283 0.2517696
0.027096037 0.033879418 0.14122932 0.90193725 -0.42826054 -0.05569672
-0.028254446 0.07750171 0.23037666 -0.99559045 -0.020067979 0.09163516
-0.022876084 0.09519634 -0.18195201 -0.99800164 0.055126432 -0.030882984
-0.03006957 0.09210759 -0.0082380315 -0.96824205 0.24998114 -0.0040998408
-0.01431529 0.07218611 0.40286723 -0.9526201 -0.3041567 -0.0019405332
-0.00921234 0.085597485 0.40488577 -0.119538575 0.99228376 0.03291664
0.020069102 -0.08393405 0.058807146 0.9787825 -0.13826856 0.15121724
-0.012897531 0.10860651 -0.14771868 -0.06965634 0.99715996 -0.028635483
0.01900392 -0.025670353 0.2027039 0.96036106 -0.274571 0.048138216
-0.011065432 0.09892784 -0.42598355 -0.7353295 0.67611635 0.046446174
0.0313586 0.06446371 0.19187407 0.9969799 -0.06288933 0.045562055
-0.024399525 0.08627443 -0.14905322 -0.9958953 0.033720274 -0.08399676
-0.02781379 0.06725243 -0.037050437 -0.99435264 -0.08598322 -0.06220773
0.03201604 0.072202966 0.17837235 0.9996404 -0.006711453 0.02596112
-0.0032377099 0.0438756 0.41784868 0.12396908 0.9683478 -0.21664299
-0.030171387 0.08247764 0.19584179 -0.9978623 0.06127011 0.022732673
0.026823027 0.099123314 0.17859459 0.96933526 0.24573572 -0.0017749058
-0.025458433 0.06961351 -0.09631883 -0.98061293 -0.1947483 -0.021710679
-0.0070950296 -0.09813874 0.065014936 -0.0004640811 -0.6540649 0.7564383
-0.012174469 0.0008931521 0.16625352 -0.58365244 -0.53793275 -0.6082583
-0.0073068887 0.031855565 0.22075522 -0.022349557 -0.9160103 0.40053162
0.024252277 0.05794567 -0.09439795 0.98182 -0.18759689 -0.028929053
0.029956058 0.046196673 0.18878089 0.97112775 -0.22568169 0.077321544
0.013905367 0.08581998 -0.39484444 0.9986935 0.05105016 -0.0022705891
0.029481392 0.060596183 -0.018839385 0.9950446 -0.092116326 -0.037426528
-0.0186343 0.021063203 0.035940927 -0.9862216 0.07596507 -0.1469566
0.0022126958 -0.0032234183 0.09989246 0.024843752 -0.9092753 0.41545296
-0.028886812 0.07025907 -0.029424634 -0.9784569 -0.16636574 -0.1222474
0.021111578 0.0908529 -0.20196022 0.99238133 -0.11273619 -0.049697805
0.005801167 0.06685347 0.39748782 0.06519221 -0.9975337 -0.026012955
-0.020376794 0.10611972 0.20871343 -0.80654943 0.58526057 0.08335509
0.015566792 0.09091769 0.2635206 0.57864195 0.7654728 0.28146917
0.012827843 -0.03830799 0.18907243 0.4370589 -0.79171586 -0.4268085
-0.0023697375 -0.1100465 -0.0017864793 0.04409003 -0.98904127 -0.14090246
-0.0050085373 -0.038114134 0.19722801 -0.5986797 -0.79315656 0.11173733
-0.019274132 -0.079018675 0.048207212 -0.9934488 -0.07743886 0.08404053
0.011185364 0.002802963 0.4000854 0.13667352 -0.9166959 -0.375485
0.016088534 0.043150995 0.38378578 0.9260284 0.3368044 0.17039452
-0.027817886 0.0506539 0.16615632 -0.99247336 -0.12190873 -0.011615403
0.02277698 0.0028442794 0.18311466 0.9972138 -0.06049991 -0.043640275
0.00528082 0.0877284 0.27868178 -0.07095179 0.9498303 0.30461165
0.023225388 -0.0639829 0.048202265 0.9971917 0.064348206 0.03831373
0.029722806 0.09537857 0.027717346 0.96301615 0.2626047 -0.06032076
0.015450111 -0.06727788 -0.006248341 0.9364984 0.26654825 -0.22786565
-0.019463614 -0.021633621 0.05103792 -0.9994413 0.016073778 0.029303383
-0.027176457 0.04768879 0.10133917 -0.994767 -0.100181006 0.020058969
-0.014066147 0.020540357 0.3827331 -0.97615206 -0.21706642 0.0030534542
0.005010628 0.06554733 0.4143867 0.038803656 -0.9918239 -0.121571675
-0.0076506473 0.08462234 0.35972103 -0.17491311 0.98454916 0.008262665
0.033790562 0.07142865 0.040254656 0.9711437 -0.2384919 0.0012151152
0.024611132 0.038817585 0.03947759 0.9080599 -0.3969816 -0.13353947
0.013330951 0.078411676 -0.45610216 0.6871788 -0.7262062 0.020245036
0.023390075 0.019802643 0.19459255 0.9926093 -0.010359875 0.12091065
0.018710861 -0.072716214 0.0718071 0.9638675 -0.14183865 0.22547993
-0.005717959 0.069831215 -0.286879 -0.49367806 -0.86738276 -0.0626815
-0.025048165 0.08000533 -0.13507575 -0.97423935 -0.20565227 -0.09254649
-0.0025698992 0.06529527 0.3361347 -0.0542702 -0.98494923 0.1641031
-0.01782017 0.11026564 -0.011467447 -0.4502582 0.8927787 -0.01461718
0.017588507 0.026444485 0.4068795 0.99226767 0.12403971 -0.004360771
-0.01927972 -0.025896396 0.059437398 -0.99952 0.012841733 0.028192332
0.004584977 -0.07361459 -0.034445964 -0.071832806 0.78604686 -0.61397916
-0.014322227 0.09731815 -0.46901897 -0.8671407 0.49795714 0.010272797
0.0018156697 0.04495945 0.39632183 0.008583786 0.96739286 0.25313497
0.0084962 0.113758676 0.15716863 0.09573669 0.9952728 -0.016325656
-0.015199437 0.08211541 -0.3019349 -0.95257944 -0.30406928 0.011591828
0.033342417 0.0755526 0.00048918533 0.9870057 -0.13822062 -0.08194424
-0.0074891625 -0.0028018465 0.42392865 -0.4917199 -0.85957986 -0.13904682
-0.0016901895 0.06785322 0.36599702 0.08662573 -0.99007744 -0.11064647
0.029388288 0.09073245 0.15769523 0.9478968 0.31843945 -0.009377871
-0.015792534 -0.00040434382 0.46849012 -0.9836735 -0.154502 -0.092279434
0.018168464 0.041659493 -0.031164039 0.6836752 -0.72433245 -0.08905421
-0.008162071 -0.060131073 -0.007413742 0.2431749 0.70347136 -0.66782784
-0.016089004 -0.10633673 0.041062146 -0.94903064 -0.2612745 0.17628516
0.010308816 0.059011903 0.3377208 0.41877627 0.87129503 0.2558738
0.027637126 0.038138267 0.11262722 0.92764986 -0.3734323 -0.0037510258
-0.007722022 0.086034074 0.39123294 -0.14900598 0.98758656 -0.0496988
-0.020852026 0.10808277 0.016718896 -0.51090133 0.8580837 0.051692422
0.003648805 -0.09117364 -0.035947844 -0.5139618 -0.42667565 -0.7441715
0.0008154877 0.10790587 -0.20495845 0.032605827 0.99946463 -0.0026993598
-0.029224532 0.09195848 0.02251691 -0.9720493 0.2346914 -0.00633339
-0.01549613 0.07014408 0.4573342 -0.99633694 -0.017232481 -0.08376035
-0.014795941 0.04009553 0.26913053 -0.28387237 -0.9587147 -0.016808521
-0.012221055 0.06782391 0.41036373 -0.689691 -0.72388715 -0.01771164
0.015174766 0.07859074 -0.24570227 0.95969397 -0.2760643 -0.05268828
0.020492159 0.020242779 0.1293744 0.974709 -0.22300395 -0.014545675
0.012405612 0.06986125 -0.24168937 0.8747402 -0.46004775 -0.1522683
0.023713626 0.05731452 -0.10641009 0.9907554 -0.13002756 -0.038686264
0.025981834 0.034581386 0.09812715 0.9156098 -0.4019393 0.010175779
0.016652815 0.022217482 0.20930396 -0.16232239 -0.34844607 0.9231667
-0.011166384 0.10104285 -0.47809482 -0.7089378 0.704981 -0.020223454
0.00010987342 0.07217116 -0.42773265 -0.18061544 -0.98353857 0.005470606
-0.013746345 -0.08654631 -0.021234537 -0.98541933 0.051279195 -0.1622321
0.022179227 0.04809656 -0.06944234 0.8212892 -0.5694914 -0.034111775
-0.013869299 -0.06362592 -0.0042988225 -0.97832453 0.16402794 -0.12639579
0.019518947 0.07399349 -0.1858114 0.9955548 -0.07624343 -0.0552951
-0.027529253 0.07995082 -0.058879063 -0.99942696 -0.02170844 -0.025970828
0.022144984 0.0647633 -0.15398905 0.9894362 -0.10332797 -0.10168233
-0.027257416 0.09548898 -0.06928229 -0.99764556 0.06770369 -0.010937627
-0.012158848 0.04575682 -0.13506979 -0.27786818 -0.9586423 -0.061597332
-0.017925534 0.10994016 0.14877658 -0.757341 0.6530108 -0.003387812
0.018609945 0.11031305 0.17490849 0.6585707 0.750855 -0.05001334
-0.014285872 0.070910536 0.33607885 -0.9539271 -0.2962811 0.04733537
0.0302747 0.085778005 0.18411441 0.98841655 0.14920661 0.027750952
-0.015538042 0.108529866 -0.12935922 -0.20390704 0.9787777 -0.02040116
-0.015166479 0.07168471 0.45366976 -0.9928845 -0.071971096 -0.09487065
0.0050606164 0.10971896 -0.11556125 0.02746195 0.9993039 -0.025250966
-0.0043114405 0.038399607 0.28154588 -0.06305161 -0.99378324 -0.09175693
0.015450114 0.088768266 -0.42983025 0.99720025 0.067635424 0.03189288
-0.023728801 0.10336785 0.10215386 -0.84928876 0.52784586 0.009343524
0.0066856467 0.10870089 -0.15508893 0.04800021 0.99801445 -0.040781904
-0.029303785 0.08403768 0.113659814 -0.99984103 0.011242401 0.013840604
0.016967079 0.03596546 0.45314142 0.9789578 0.06987861 -0.1917255
0.009623937 0.09017717 -0.4993323 0.043126594 0.13835537 -0.98944324
0.01493823 0.055115692 -0.19301358 0.9016827 -0.41256496 -0.12945454
0.017575115 0.06962978 0.45825636 0.9903282 -0.114494905 -0.07836409
-0.0129488725 0.03706195 0.41438293 -0.9943245 0.10569704 0.012122578
-0.014919407 0.047382798 0.35634953 -0.9923307 0.110958844 0.05448007
0.03175132 0.065185085 0.07266321 0.9739861 -0.22480032 0.028564472
-0.022052824 0.070443586 0.27163503 -0.99198425 -0.0006660051 0.12635933
-0.01398484 -0.09633819 -0.01881244 -0.9683071 -0.08376796 -0.23529634
-0.02641867 0.047788274 0.005351606 -0.8640331 -0.499415 -0.06349374
0.0069115525 0.0360114 0.30595976 0.1205685 -0.9867104 -0.1089302
0.011099362 0.038484402 0.28952616 0.11414656 -0.991479 -0.062769264
0.014705694 0.07915118 -0.32655147 0.89031374 -0.45505285 0.016383642
0.017215211 0.11134989 0.082448535 0.3878696 0.92131436 0.027147794
-0.014537908 0.10390751 -0.23280884 -0.69129086 0.70850104 -0.14192685
0.0025898349 0.009051068 0.38343334 -0.038699057 -0.934481 -0.35390338
-0.013571882 0.015955552 0.42833015 -0.99973595 0.007795182 -0.021615995
-0.01605267 -0.06485094 0.008327378 -0.97450113 0.10640019 -0.1975515
-0.028858924 0.061261944 0.07606593 -0.99354047 -0.107182786 0.03727141
-0.017586766 0.110387474 0.09733389 -0.6706934 0.7417225 -0.00424417
-0.01878363 0.057539243 -0.17507556 -0.9442203 -0.29851228 -0.13906272
0.006322314 0.03713435 -0.018714998 -0.011506466 -0.99879175 -0.047777276
0.017643506 0.020705983 0.43056458 0.9961818 0.08164001 0.03093105
-0.011594181 -0.028702816 0.18197003 -0.57705176 -0.7038604 -0.41423646
0.019826645 -0.051660784 0.074781686 0.98418725 -0.132124 0.11797752
0.014777567 0.04220631 -0.07368846 0.3859117 -0.92168766 -0.039547514
0.031715985 0.07148261 -0.011569397 0.9700633 -0.22960849 -0.079101846
-0.012389073 0.106200665 0.22673935 0.06168779 0.9399607 0.33566132
-0.025299547 0.10022444 0.14468874 -0.8664264 0.49929568 -0.0030246032
0.01405063 0.08507708 -0.49685365 0.9164898 -0.005429367 -0.40002134
0.010088134 0.043806866 -0.12466668 0.09996142 -0.99273705 -0.06693886
0.012899103 -0.011518482 0.02031908 -0.104072474 0.39575383 -0.9124406
-0.0077662366 0.07517275 -0.45073533 -0.40862006 -0.91129535 -0.05069859
-0.024495985 0.07351654 -0.12625402 -0.9708283 -0.22877483 -0.07179443
-0.024122175 0.059981912 0.24993931 -0.9916983 -0.063570015 0.11177337
-0.0028925259 0.10586547 -0.26961282 -0.14511223 0.98939604 -0.00615957
0.018226944 0.065236434 -0.19218229 0.9696473 -0.20928438 -0.12642877
0.004326617 0.038950566 -0.045143098 0.06782964 -0.9946931 -0.07736131
0.025877582 0.099851415 0.1590122 0.8108684 0.58440864 -0.030969292
-0.017626066 0.01160335 0.18694383 -0.9953105 -0.0967172 0.0017163407
-0.001292371 -0.06591004 0.080669425 -0.086841255 -0.26338023 0.96077543
0.021534713 0.09049807 -0.19307609 0.9946137 -0.08934956 -0.052537598
0.025830962 0.09963129 0.15216278 0.8061841 0.5913046 -0.020641739
-0.018218746 0.015698725 0.18789172 -0.9881073 -0.13088623 0.08070136
-0.01035374 -0.11049922 0.04804357 -0.49588135 -0.7392201 0.4556921
-0.03166744 0.078342035 0.009117363 -0.9984518 -0.052210916 -0.019181075
-0.0074949577 0.113176346 0.09011199 -0.03598704 0.9993417 -0.004589872
-0.0035600965 -0.11592566 0.039519683 0.076068975 -0.9092501 0.40924054
0.015943004 0.08459369 -0.26373792 0.99881583 -0.024232745 -0.042186312
-0.02956778 0.087378 0.15823418 -0.9835899 0.17632608 -0.038211364
4.4387067e-05 0.050460655 0.37593424 0.0050861435 0.98909646 0.14718123
0.016503215 0.07410241 0.3382028 0.99194676 -0.116364844 0.050009035
-0.018245935 0.04264447 -0.031286683 -0.6136916 -0.78772706 -0.053560056
0.01776847 0.0460736 0.4811188 0.94726986 -0.0026842295 0.32042563
-0.019634293 0.061706893 -0.17658724 -0.98173803 -0.17655586 -0.07084105
0.0048359707 0.072585 -0.44161072 0.2110372 -0.9774678 0.0044744923
-0.01377974 0.084596455 0.40586537 -0.6745007 0.73817354 0.012187253
0.022481883 -0.04686823 0.06104559 0.9971413 0.010483252 0.0748282
-0.014550231 0.02590181 0.47809276 -0.99741775 0.0047484487 0.07166049
0.011163631 0.082372814 0.45047644 0.33727926 0.93779945 -0.082309306
-0.019677116 0.04814791 0.27350718 -0.97546417 -0.19665273 0.098981276
0.020739254 0.10679603 -0.08749819 0.62158144 0.783272 -0.011021082
0.0018662467 0.029636832 0.2148784 0.09011253 -0.8836772 0.4593413
-0.013968384 0.08115166 -0.41170788 -0.93448025 -0.35451144 -0.03268498
0.023867626 0.07526902 -0.1341214 0.99687636 -0.072541855 -0.031228442
0.019255081 0.066734575 -0.18338917 0.99533033 -0.07112323 -0.06526084
0.006928717 0.03865631 0.2518962 0.10903644 -0.98972464 0.09249975
0.014542595 0.07541796 -0.2422076 0.96215874 -0.2574086 -0.089394905
0.012559164 0.0325565 0.33179232 0.16769913 -0.9598542 -0.22484866
-0.027028153 0.062092133 -0.04784297 -0.9973406 -0.059312973 -0.042352278
-0.0055744974 0.0399234 -0.06513462 -0.012133139 -0.99519074 -0.09720178
-0.008479176 0.065349996 0.3336361 -0.11016009 -0.977848 0.17798339
0.021817181 -0.0046737147 0.04429469 0.98609143 -0.048991602 -0.15881895
0.02236469 0.013505055 0.1664354 0.97855115 -0.1879578 -0.08431821
-0.0010632081 -0.0027013358 0.09921961 -0.24521478 -0.793737 0.55664295
0.031276293 0.073536426 0.106648415 0.99900943 -0.01522843 0.041813396
-0.020257667 0.029110376 0.090854935 -0.99037415 -0.12725739 0.054448213
0.007052835 0.1139801 0.16236329 0.097690135 0.99506074 -0.017627953
0.020035926 0.052055445 0.2963684 0.988187 -0.12466934 0.08912923
0.02653057 0.04252614 0.043804273 0.96476096 -0.25804588 -0.051464908
-0.010244342 0.10936759 0.21630782 0.038267702 0.9758413 0.2151032
-0.010054892 0.0448045 0.42403015 -0.93160534 0.34641656 -0.110032514
-0.029158097 0.06919171 0.15459897 -0.99017423 -0.13642585 -0.030708756
0.014104283 0.08732874 -0.3876658 0.995787 0.05521683 -0.073207125
-0.019540783 0.014907998 0.07965336 -0.99874085 -0.03630829 0.034616698
-0.022765659 0.07874541 -0.17108747 -0.98380435 -0.16288406 -0.07481813
-0.018720621 -0.05639541 0.024066798 -0.98851407 0.07551568 -0.13090993
-0.0075330664 0.11006103 -0.07011069 -0.091054074 0.99571496 -0.016150588
0.030406022 0.08652717 0.1338202 0.99088687 0.13458075 0.0055943015
-0.012165646 0.0041636713 0.4267615 -0.95758545 -0.28325304 -0.05289397
-0.014586861 -0.03664673 0.013855314 -0.951295 0.12143034 -0.28335923
-0.01499313 0.05822575 0.32292125 -0.9804083 0.17373614 0.09281835
0.018865576 0.044871718 0.32556254 0.9978544 -0.065274075 -0.005085501
0.015895288 0.015711904 0.38003355 0.9691635 -0.2302976 -0.08766481
-0.004115265 0.0740571 -0.4590509 -0.33287 -0.9427385 -0.021016555
0.017673697 0.09781439 0.24043475 0.6704507 0.7031616 0.23676926
-0.02686184 0.044617735 0.15633653 -0.97267663 -0.23185223 -0.012029333
0.018758653 -0.023792127 0.1827869 0.9556711 -0.26038304 -0.13745354
0.009133869 0.07439003 -0.42755294 0.43029523 -0.9026833 0.0029751526
0.020444244 0.046314746 0.27949134 0.97724783 -0.20235066 0.06356823
-0.0010827179 0.05081461 0.48676616 0.046456352 -0.12241121 0.9913916
-0.009946877 0.05181928 0.37517965 -0.75888896 0.6401702 0.11945559
-0.016032087 0.06543966 0.48070207 -0.95069635 0.10686195 0.29113045
0.018660787 0.041777167 0.3253693 0.9944051 -0.09839961 -0.038419094
-0.025197316 0.077628374 -0.12880443 -0.96556413 -0.23258089 -0.11658491
0.0025392852 0.11336677 0.0825542 0.003951682 0.99991274 -0.01260266
-0.00546168 -0.0873722 0.07285378 -0.104613535 -0.37126473 0.92261505
-0.020249808 0.087423496 -0.214366 -0.9881302 -0.14136824 -0.06011467
0.024950478 0.08696231 -0.13591754 0.99407405 -0.042289406 -0.100141555
0.02148229 -0.02111685 0.045458276 0.992013 0.04467875 -0.11795781
-0.007286097 0.01262722 0.3753552 -0.14273034 -0.911427 -0.38591293
-0.0095804455 0.075715266 -0.43854532 -0.4668101 -0.8843403 0.0055325245
-0.02153117 0.077543266 -0.1790602 -0.9574313 -0.25236452 -0.14013362
0.02160735 -0.03691588 0.07337301 0.96856666 -0.117358975 0.21932979
-0.013227504 0.035335686 0.4104337 -0.9913948 0.1301947 0.0136223
0.0134618785 -0.0061280155 0.42756227 0.4162599 -0.89416265 -0.16492674
0.021836536 0.030630646 0.033852674 0.9720135 -0.14719027 -0.18309794
0.01274549 0.07792939 -0.44779754 0.7812225 -0.6234156 -0.032316502
-0.0028565333 -0.016074356 0.44768223 -0.3148169 -0.8771668 -0.3625862
-0.016667215 0.012938234 0.19991198 -0.9686532 0.07348113 0.23730053
0.0192615 0.008032997 0.15831505 0.96086967 -0.2313031 -0.15240845
0.014375372 0.056144062 0.33797857 0.807099 0.58374774 0.088485815
-0.0013432563 -0.10848021 -0.009382431 -0.032156713 -0.9698216 -0.24168588
0.029756868 0.08866803 0.18170075 0.9455576 0.32437018 0.026547639
-0.015193576 0.10493386 0.2297584 -0.21604492 0.936671 0.2756302
0.031616103 0.08019063 0.15730546 0.9909704 0.13374531 -0.009480872
0.011230071 0.09894445 -0.42735085 0.7743187 0.631666 0.037796713
-0.011834066 0.041073598 0.43472877 -0.9716577 0.2360276 0.013128706
-0.012407601 0.07740837 -0.3340687 -0.787709 -0.615762 -0.018753981
0.016169805 0.086920075 -0.4870131 0.9932043 -0.021201978 -0.11443612
0.006204986 0.041036353 -0.07754033 0.09289747 -0.9935195 -0.065490946
0.01347374 0.11279909 0.19891495 0.09639375 0.9886167 0.11552165
0.0036052181 0.107797325 -0.1908806 0.042563397 0.99908125 0.005000285
0.018116591 0.05577359 0.31625798 0.9792143 0.17268036 0.10639931
-0.027314452 0.100642845 0.008587 -0.9282152 0.37138665 0.022102049
-0.030094435 0.07066473 -0.01637911 -0.9861753 -0.15360084 -0.062170155
-0.029956998 0.08875746 0.064373545 -0.9969471 0.078076646 -0.00074539805
0.019378498 -0.022633472 0.02963163 0.9883168 0.033931166 -0.14858834
0.014768972 0.087969534 -0.4143098 0.9971492 0.05010395 0.056418296
0.008909047 0.10803197 0.22298175 -0.057270564 0.9366817 0.34546712
-0.027926708 0.06324052 0.10556961 -0.99890167 -0.029439982 0.036451314
-0.0104092145 -0.002539453 0.43477654 -0.9075226 -0.40011144 -0.12772417
0.017226098 0.025671659 0.42497325 0.980273 0.17457224 0.0926784
0.031580895 0.075634964 0.18420434 0.99537534 0.08784868 0.03886666
0.006283784 0.10057201 -0.38006818 0.56278616 0.8262835 0.022962801
-0.012626495 -0.09706334 -0.022507872 -0.9426135 -0.18224877 -0.27975926
-0.00945157 0.044037417 -0.11785638 -0.070109256 -0.99451953 -0.07756026
0.00936916 0.010220697 0.38038954 0.0409355 -0.8978411 -0.43841267
0.030384503 0.04886549 0.0991763 0.9927633 -0.11936912 -0.013118484
0.026154054 0.07700121 -0.10398801 0.9889583 -0.14097364 -0.045693446
-0.0144942915 0.029290605 0.47853786 -0.9199032 0.0118243275 0.39196718
0.0004257384 -0.015035425 0.4889472 -0.06842387 -0.30700937 0.9492436
0.016028084 0.105449095 -0.19080108 0.33899105 0.9407232 -0.011181997
-0.0056721605 0.074088335 -0.4476159 -0.28545582 -0.95691216 -0.053236414
0.024463747 0.02031584 0.080215976 0.9931782 -0.070196554 0.09311046
-0.015039074 0.09020172 -0.38059545 -0.99755126 0.05715645 -0.040306333
-0.014814198 0.094990216 -0.44688183 -0.96145993 0.2715476 0.04308789
-0.0020264315 0.11507647 0.1763135 -0.055723757 0.9983357 -0.014852559
-0.027956622 0.09293163 -0.036291804 -0.9942927 0.08988475 -0.057470407
-0.015823523 0.017066844 0.14058225 -0.9799355 -0.1964626 -0.03359856
-0.012384451 0.027547056 0.025033498 -0.04339493 0.031190107 -0.998571
0.020748286 0.103262424 -0.16535881 0.8894284 0.45264387 -0.06348794
-0.00460223 0.06691974 0.3743042 0.09305092 -0.99481 -0.04116706
0.030967891 0.060954075 0.084076755 0.9976811 -0.06651106 0.014447011
-0.028165989 0.0515476 0.02421698 -0.95919764 -0.28142476 -0.027201368
-0.019114077 0.04412575 -0.042765055 -0.6561733 -0.75336754 -0.043288656
-0.018997096 0.042412676 -0.021552825 -0.55845815 -0.82609046 -0.07549219
-0.016192004 0.061399475 0.31011534 -0.9806798 -0.028775746 0.19349182
0.021683762 -0.10477837 0.03908981 0.94798416 -0.2737581 0.16242692
-0.030257806 0.07629 0.08758604 -0.99729615 -0.038926445 0.06233101
-0.018165512 -0.09770954 0.018373428 -0.96268994 -0.20351544 -0.17835236
-0.0012081785 0.03745941 -0.024933657 0.049427453 -0.99670076 -0.06437735
0.023167893 0.063480206 0.2638642 0.99279845 0.048461337 0.10955686
0.023079028 0.07628429 -0.1502421 0.99166787 -0.09299912 -0.08914056
-0.014594164 0.11250692 0.110692516 -0.5052469 0.86285514 -0.01437428
0.019492555 0.09514612 -0.2226729 0.99486893 0.08457054 -0.05553025
0.022334477 0.0008227676 0.20285916 0.99471635 -0.0065569677 0.10245262
0.00035257475 0.08489043 0.2975659 -0.0346833 0.99912286 0.02346268
0.026614908 0.035864033 0.11324937 0.89789075 -0.44020337 -0.0036306921
0.0144512765 0.10801639 -0.14476314 0.33270302 0.9423091 -0.0369096
0.0053352076 0.11322155 0.054190096 0.0014037143 0.9999328 -0.011504354
0.0119584575 0.04396645 0.48532298 0.25918746 -0.07331252 0.96304053
0.017578445 0.02195041 0.3896716 0.9949194 -0.09996294 -0.011947781
-0.01645395 0.062123902 0.47958168 -0.9180562 0.039223593 0.3945053
0.0074358974 0.113242246 0.060080033 0.014539928 0.99988323 -0.0046991585
-0.026192507 0.09246527 -0.12407417 -0.9830354 0.16016175 -0.08938458
0.01293396 0.08175791 -0.49653482 0.85226536 -0.4141555 -0.3195605
-0.015014919 0.038950063 0.47772387 -0.99386966 -0.08233971 0.07377893
-0.025649112 0.0767494 -0.124055274 -0.96276295 -0.2324243 -0.1380813
-0.002001543 0.11298112 0.043445777 -0.02595461 0.9993897 -0.023377448
0.0025897934 0.101344705 -0.35951442 0.21436068 0.9767324 -0.006587459
-0.014296553 0.07170662 0.39352173 -0.9424918 -0.3336178 0.020205704
0.029421674 0.08650059 -0.04084219 0.97804785 0.19611365 -0.070440106
-0.018546289 0.07893238 0.29010746 -0.94360477 0.29730982 0.14566006
-0.0046471534 0.11467745 0.16540582 -0.047244504 0.9987793 -0.014417194
-0.0031836135 0.10142869 -0.38398972 -0.29134798 0.9565543 0.010961492
-0.018523756 0.10987242 -0.013721346 -0.44992414 0.8921163 -0.04119177
0.017835377 0.008205412 0.11638834 0.9429693 -0.31670347 0.102507226
0.02349492 0.021780211 0.09489834 0.99488366 -0.09494022 0.03453614
0.027313748 0.0732708 0.23922221 0.9874704 0.024891678 0.15582915
-0.016658518 0.05913546 -0.19097535 -0.92427784 -0.3248709 -0.20042285
-0.027330786 0.09048487 -0.088127196 -0.9988219 0.04691122 -0.012413642
0.0004538931 0.106715225 -0.24843392 0.015268143 0.99762017 -0.067237675
-0.018562436 -0.032934617 0.028153101 -0.9725977 0.06607805 -0.22290675
0.014616552 0.08151992 -0.38050032 0.9931216 -0.083027855 -0.08255808
-0.028291967 0.05545873 0.18053871 -0.9962297 -0.08630515 0.008824331
-0.0021861054 0.11268775 0.0069407662 -0.013498944 0.99962354 0.023886267
0.017944604 0.017643565 0.4293924 0.99544096 0.08783928 0.03716803
0.031124732 0.062943496 0.13791396 0.99898636 -0.00010670326 -0.04501353
-0.0153239705 0.006212061 0.16960081 -0.9470979 -0.29396653 -0.12879959
0.027187763 0.08951817 -0.0950381 0.9998365 0.0019985745 -0.017971914
-0.028579034 0.06541904 0.1522148 -0.98963207 -0.13903111 -0.03603755
-0.011743596 0.07908283 -0.4783746 -0.74279124 -0.6689996 0.02647078
-0.012051662 -0.105313115 0.05510185 -0.54331076 -0.6868487 0.48275483
-0.010327274 0.043023743 -0.09888018 -0.12047741 -0.99240917 -0.024683028
2.0418549e-05 -0.024156585 0.4625329 -0.04021562 -0.83390945 -0.5504342
0.018822633 -0.019740002 0.08609704 0.94877476 -0.008700769 0.3158336
-0.000815002 0.10175534 -0.37786973 -0.0043791574 0.9999738 0.005767671
-0.0007644256 0.04558127 -0.14623636 -0.055303227 -0.99107254 -0.12131323
-0.005359444 0.11365848 0.11161452 -0.052201968 0.99828076 -0.026656972
0.007296632 0.101061024 -0.32011074 0.53463954 0.8434329 -0.0527403
-0.011777747 0.09684751 -0.3392813 -0.65706843 0.7534352 -0.024423502
0.014472762 0.11260268 0.10070435 0.46938464 0.88284755 -0.016071124
0.015681557 0.052236117 -0.17463528 0.8182942 -0.56373745 -0.11222578
-0.01345853 0.01944833 0.43669352 -0.998294 0.056841034 0.013351512
-0.0016914448 -0.021387523 0.22544274 0.10867213 0.3529118 0.9293243
-0.011194862 -0.017731644 0.48290902 -0.8190205 -0.24109939 0.5206501
-0.028005594 0.061051913 0.10068335 -0.99855125 -0.043523584 0.031638972
0.024462415 0.08524766 -0.1406741 0.9958365 -0.047804285 -0.077617384
0.026061986 0.103473544 0.016330441 0.8991007 0.43651715 0.032720264
-0.011877852 0.03739822 0.32433307 -0.4982771 -0.8598677 -0.11111938
0.023546431 0.015251618 0.18990031 0.99923897 -0.030448612 0.024380235
0.024163025 0.045318946 -0.004486557 0.8026283 -0.59109724 -0.0799493
0.003974287 -0.0009028845 0.14501812 -0.070377216 -0.9923066 -0.10185618
-0.00070865545 0.10221457 -0.39504096 -0.06071122 0.9971856 0.043989006
0.03237505 0.084725104 0.019030832 0.9519014 0.3061841 0.01161989
-0.0042419964 0.065902755 -0.26036492 -0.4870667 -0.84679127 -0.21380025
0.018632445 0.0461167 -0.095790565 0.75961655 -0.6483098 -0.05174146
0.00048087386 0.11326348 0.07058109 -0.01937487 0.99980426 -0.004012276
0.021283247 -0.08192761 0.01473147 0.9417213 0.054486234 -0.33195218
0.031039832 0.06374528 0.08829354 0.99839073 -0.05123273 0.024313837
-0.004762935 0.10697925 -0.24089007 -0.10545485 0.9922597 -0.06557429
-0.020640057 0.08104649 -0.19282052 -0.9673321 -0.23778133 -0.08791245
-0.0019101482 0.031345006 0.33282548 -0.055462882 -0.95552456 -0.28964922
-0.008704802 0.10798077 -0.19006479 0.022453569 0.99967194 0.012325057
0.017205853 -0.04319326 0.014541762 0.79185724 0.20807563 -0.57416606
0.026072104 0.07582428 -0.10110303 0.9597936 -0.27697 -0.04564936
-0.024437401 0.10218844 0.10488678 -0.84931135 0.5278599 0.005847569
0.01797505 -0.029897656 0.18896654 0.951666 -0.26814988 -0.14975786
0.013609466 0.021725338 0.3602217 0.3113287 -0.8424466 -0.43972495
0.02995041 0.0527869 0.20896804 0.98826754 -0.14746504 0.039765343
0.019786814 0.10215401 -0.1852938 0.93828154 0.335978 -0.08213686
-0.014431661 -0.055206254 0.0060644355 -0.95474386 0.20308848 -0.21729979
-0.01580676 0.015544524 0.14710288 -0.972162 -0.22653766 -0.059847835
-0.0015995385 -0.06883589 -0.017075578 0.094224095 0.8811882 -0.46328086
0.0027774456 -0.047542248 0.006154339 0.06523443 0.2874674 -0.9555663
-0.014720267 0.0390425 -0.018655762 -0.62224716 -0.7828209 -1.1944899e-05
-0.015645495 0.11150351 -0.0037943118 -0.41275242 0.9108432 9.7620585e-05
-0.0050374586 0.0024130407 0.21074526 0.11736558 0.16982998 0.97845954
0.010735816 0.094935186 -0.4961243 0.76332146 0.45470294 -0.45889598
0.018197685 -0.027062545 0.18522951 0.95259655 -0.27163887 -0.13701135
-0.003817189 0.0370533 -0.011582469 0.03349492 -0.9991456 -0.024210256
0.022862341 0.024729094 0.1985232 0.9779159 -0.0028053008 0.20897998
0.02231911 -0.079373695 0.018323677 0.9510628 0.18417265 -0.24811281
0.019508274 -0.0887506 0.0003213914 0.9991022 0.012897346 -0.040353753
0.0192867 0.0072132125 0.10264477 0.9578388 -0.24621204 0.14806923
0.01636787 0.006753258 0.02726766 0.21730442 -0.063626304 -0.97402793
0.0014347048 0.06616953 0.34042305 0.007177135 -0.9738317 0.22715706
0.018889088 0.10857594 -0.052315153 0.479193 0.87746096 -0.020890113
0.023520641 0.015210709 0.18562244 0.9961654 -0.0821727 -0.03003575
0.019126393 0.11054239 -0.011619623 0.5528672 0.8332663 -0.0022861788
-0.014606052 -0.07521085 -0.010469414 -0.975673 0.0815691 -0.20349102
-0.012072226 0.08518733 0.3937397 -0.24646787 0.9690155 0.016205458
0.01631364 0.09003533 -0.46573308 0.996099 0.08113367 0.03469992
0.031152114 0.05571105 0.037423622 0.94367623 -0.32991806 -0.02508368
-0.014938446 0.07557645 0.4495422 -0.9985976 -0.015435476 -0.050641466
0.011200447 0.07595741 -0.44069737 0.6475461 -0.76201934 -0.0032408924
0.017244695 -0.025527742 0.21375921 0.79531765 -0.4037804 0.4521407
-0.00365257 0.112569496 0.011985381 -0.0071245884 0.9998223 0.017452953
-0.019865572 -0.08512137 0.040243648 -0.9969601 -0.036456525 0.068858944
0.006681745 0.10006349 -0.36352968 0.5939704 0.80436057 0.014256522
0.028690808 0.09227476 0.14310353 0.9476041 0.31942022 -0.004135357
0.016298298 0.044536665 -0.10555268 0.4877684 -0.8716827 -0.047447566
-0.019564608 -0.025399748 0.048659913 -0.9995211 0.015388744 0.026850233
0.012401482 -0.021438712 0.01659291 -0.027169613 0.40782923 -0.9126539
-0.011112125 -0.014573112 0.09226721 0.117247105 -0.5142316 0.8495993
-0.012986852 0.025415918 0.43705335 -0.9934373 0.1123256 0.021570759
-0.028984712 0.068101525 0.20116676 -0.9908523 -0.12994957 0.036399487
0.021500085 0.03853333 0.23054668 0.807953 -0.5717376 0.14257671
-0.014617854 0.076742604 0.47982788 -0.8671241 0.47420046 0.15241331
-0.027836483 0.053589426 -0.0029439875 -0.9736179 -0.22667636 -0.026191534
-0.029778907 0.09254096 -0.015377256 -0.96045053 0.27684894 -0.02982356
-0.023333054 0.10358823 0.13938661 -0.769928 0.63813055 -0.0005639121
-0.026483549 0.04457993 0.13456766 -0.97236496 -0.23203017 -0.025853667
0.018747058 0.010736746 0.43892556 0.99193954 0.1241438 -0.02538273
0.01235188 0.038677733 0.28883684 0.12034579 -0.9903292 -0.06902807
0.021313118 0.10780384 0.094148815 0.62863404 0.7773825 0.022264814
0.0028217728 0.0679252 0.34626132 0.121669725 -0.9598427 0.25278175
-0.0045185997 0.11464553 0.18320021 -0.073935814 0.9957784 0.054395854
0.01749215 -0.042072352 0.08544078 0.21897255 -0.05016727 0.97444046
-0.018888662 0.018624533 0.18292825 -0.9929879 -0.110115655 0.043008365
-0.014812543 0.07394997 0.44820058 -0.9962862 -0.040734082 -0.075858586
0.012081513 0.10719783 -0.17534952 0.27181673 0.96178335 -0.032989964
0.013524248 0.08885971 0.27349904 0.088515565 0.94694024 0.30898085
0.00041920145 0.056975547 -0.22797437 0.097296745 -0.9263831 -0.36379632
0.014061959 0.06324833 0.43454802 0.9347553 -0.31028885 -0.17307009
-0.007869206 -0.01720967 0.22442053 0.044639546 0.5263594 0.84908956
-0.0007450627 0.055465337 -0.22229129 0.028205022 -0.98269236 -0.18308523
-0.00043553254 0.06347314 -0.2510424 -0.012325165 -0.9923121 -0.12314566
-0.016819427 -0.05496045 0.015673518 -0.9581943 0.09664405 -0.26930207
-0.016275477 0.10113582 -0.2338329 -0.82295054 0.53969634 -0.17742659
-0.020420007 0.055561304 -0.14703281 -0.92756486 -0.35848027 -0.105429545
0.012945065 -0.02938535 0.0145645365 -0.04097985 0.21274963 -0.976247
0.027984414 0.053841203 0.22708225 0.9597655 -0.24733703 0.13294603
-0.007810333 0.07495318 -0.44618496 -0.40475392 -0.91393167 -0.030052533
-0.009242646 0.072887786 -0.29075244 -0.66472375 -0.7461681 -0.03708744
-0.0150169525 0.0764534 0.36241698 -0.9760025 0.21746197 0.011377959
0.00026984315 0.03519014 0.0116209695 -0.05875668 -0.9871002 -0.14893259
0.01092725 0.07173103 -0.29535967 0.7176854 -0.69632775 -0.007435736
-0.013305567 0.011232703 0.4129579 -0.9874642 -0.14244822 -0.06799213
0.022879625 0.08725875 -0.16950934 0.987785 -0.1317328 -0.08322981
-0.026953598 0.06793831 0.23726568 -0.9851253 -0.1446061 0.092829
0.008020917 0.11001257 -0.08330529 0.06825254 0.99754655 -0.015571443
0.004461824 0.0876193 -0.4998222 0.005958249 -0.008246949 -0.99994826
-0.020336306 0.108674444 -0.019382035 -0.44941354 0.8918054 -0.05206371
0.0022563688 0.019297848 0.028552176 -0.2667492 0.03211455 -0.9632308
-0.016861986 0.04724613 0.29829463 -0.9844559 -0.1487965 0.0933067
-0.027680084 0.099528976 -0.018888079 -0.97172564 0.23380516 -0.03293156
0.023057904 0.09530112 -0.16407338 0.9973115 0.04502937 -0.05781229
-0.01528053 -0.00062188436 0.17535178 -0.9706553 -0.12447185 -0.20575476
-0.014967324 0.057883147 -0.1982375 -0.94964856 -0.27071127 -0.15774344
0.010460022 0.07729452 -0.49460945 0.73100406 -0.6249048 -0.27409306
-0.011007536 0.1092966 -0.11446206 -0.050269894 0.99863225 -0.014369357
-0.029935384 0.056623343 0.03617444 -0.9493493 -0.31418365 0.004954185
0.015239482 0.101019345 0.23581018 0.41842368 0.8165621 0.39767823
0.006223577 0.0635041 -0.24416311 0.5106374 -0.83875823 -0.18903463
-0.02681518 0.054013424 0.21435925 -0.9822268 -0.16786103 0.08398297
0.014339051 0.042621505 0.39840496 0.8277413 0.5457587 0.13035218
0.015607281 0.10940066 -0.07109834 0.19264418 0.98112595 -0.016737347
0.012359209 0.10915525 -0.12292295 0.068650655 0.9973597 -0.023679988
0.02746031 0.080438815 0.23484743 0.9827964 0.15099756 0.10635363
-0.005355278 0.060949475 -0.2348281 -0.17238373 -0.9454632 -0.27637511
0.022825811 0.041939072 0.014109118 0.7558292 -0.64759165 -0.09668146
-0.019788109 0.034294747 0.21509968 -0.7229844 -0.64556193 0.24605548
0.0049052797 -0.082838446 0.07519863 -0.06185919 -0.3548488 0.93287504
0.023166962 0.011511648 0.048146803 0.98922366 -0.098475575 -0.10834728
0.031840228 0.06723837 0.0807659 0.982191 -0.18462542 0.034844883
-0.0253859 0.1000943 0.12623948 -0.86652225 0.4990179 0.010964748
-0.01786248 -0.04289127 0.023002027 -0.964252 0.08495854 -0.25099832
0.0027614613 -0.020226246 0.4874051 -0.055575535 -0.28736156 0.9562085
-0.0001250339 0.047762536 -0.16636857 -0.0427324 -0.99556005 -0.08386973
0.023678742 0.02471056 0.046711776 0.9930549 0.0021971583 -0.11763131
0.028443193 0.03971497 0.118413426 0.9144301 -0.40370494 -0.028980581
-0.00024020672 -0.0038837318 0.49096534 -0.052776154 -0.09396249 0.9941759
0.016500775 0.055541314 -0.18230805 0.88093585 -0.44989076 -0.14680023
-0.013279928 0.08205967 0.367947 -0.5971778 0.79747266 -0.08611624
0.017685112 -0.08320133 -0.01756171 0.963614 0.25233993 -0.088162675
0.015780305 0.07200436 0.35077944 0.75141156 -0.65979135 0.007487057
0.02365021 -0.093350135 0.041388772 0.9106844 -0.12995484 0.39212957
0.0061431057 0.10815754 -0.17304756 0.047745224 0.99841446 -0.029814104
-0.0084634125 0.006534282 0.20979948 0.11100719 0.25558767 0.96039176
0.0013472759 0.1042715 -0.4166762 -0.14894746 0.98540485 0.08241278
0.01535945 0.0473143 0.4836422 0.6428567 -0.012595032 0.76588285
0.0017454983 -0.0011906506 0.10494264 -0.24415652 -0.9293746 0.2768582
-0.0071221846 0.04157359 -0.08197199 -0.18286294 -0.9795737 -0.083644025
0.019799741 0.047816064 -0.10045636 0.77230275 -0.6331224 -0.052004576
0.004450385 0.07246067 -0.4361159 0.23616333 -0.9714834 -0.021142125
-0.01943592 0.0053837644 0.03571607 -0.98799515 -0.023510413 -0.15268578
-0.01474149 0.046645578 0.4597752 -0.9832348 0.035256986 -0.17890295
-0.0059771077 0.06597818 0.40671384 0.0345201 -0.996612 -0.07465162
0.028803378 0.09264978 0.12581351 0.9613681 0.27507895 0.010151165
-0.031385764 0.077184215 0.048789755 -0.9992669 -0.036396027 0.011877882
0.014389316 -0.07388072 -0.02626076 0.98574305 0.1402897 -0.09289473
0.028441412 0.061002582 0.23088259 0.96921027 -0.08851202 0.22977631
-0.023111835 0.03420646 0.13700579 -0.9110444 -0.40866047 -0.054723
0.01852838 -0.0070753666 0.1699505 0.9333056 -0.19090213 -0.3041332
0.008076379 0.102693096 -0.29839626 0.50621486 0.8579806 -0.08726831
0.0032197647 0.08343375 -0.49976888 0.0063989637 -0.054703522 -0.9984821
-0.013898915 0.01873435 0.39006355 -0.9853964 -0.1609233 -0.055656575
0.029828487 0.046831157 0.09125499 0.97660303 -0.21480915 -0.010177916
0.027304534 0.07426528 0.23928446 0.9912259 0.0007411204 0.13217656
0.006418923 0.11094448 -0.04412356 0.070123486 0.9955834 -0.062421452
-0.01967867 -0.06806995 0.032057032 -0.9987626 0.028788185 -0.040553395
0.014015779 0.051403295 0.36559573 0.7197162 0.6735635 0.16828813
-0.0060065654 -0.029400773 0.4801047 -0.5409906 -0.74427396 0.39164454
-0.011764104 0.10994016 -0.051621825 -0.091559716 0.9957613 -0.008736614
-0.015754078 0.0774175 0.31950414 -0.96244556 0.25939447 0.08008141
-0.030514617 0.06735048 0.010274819 -0.98891205 -0.14071807 -0.04744925
-0.010655777 0.04335549 0.42070803 -0.8594229 0.50643176 -0.07013716
0.01034129 0.06820156 -0.2503422 0.7763041 -0.6241808 -0.08803547
0.031586 0.067709446 0.19378093 0.995458 -0.09306597 0.02005012
0.02164315 -0.0037744243 0.08067075 0.9520166 -0.1672221 0.2563223
0.009389884 0.006330833 0.027250282 -0.11276862 -0.006352521 -0.99360096
0.006311128 0.1088039 -0.15293984 0.04733598 0.9981373 -0.038487136
-0.0036913862 0.101073846 -0.3659876 -0.25791052 0.96607363 0.013561824
0.007881445 0.0024493574 0.12168272 0.18174596 -0.9833157 -0.007652146
-0.0006140275 -0.006215937 0.023943335 0.062281772 0.45691803 -0.8873257
-0.015200957 -0.08122629 0.06675574 -0.98456764 -0.086616896 0.15206595
0.032129463 0.07338846 0.16343565 0.99892926 0.04621511 0.0021339431
-0.028261483 0.06272075 0.20433477 -0.9963955 -0.0774405 0.03462663
0.001350364 0.03835253 0.24992652 -0.0350279 -0.99634916 0.07785498
-0.010396316 -0.07416361 -0.029135022 -0.9801769 0.13402352 -0.1459138
0.023530534 -0.066575274 0.03541325 0.9934691 0.09404728 -0.06460824
-0.0015054571 -0.08802538 0.072995186 0.010724375 -0.5235649 0.8519183
-0.017338093 0.008530257 0.18306479 -0.9994747 -0.031797864 0.0062604425
0.019803882 0.042973425 0.26392913 0.767466 -0.64108515 -0.0024006732
-0.02393681 0.055049613 0.247037 -0.9824092 -0.15127537 0.109489694
-0.022309294 0.04149767 0.22409588 -0.9444837 -0.30345228 0.12596527
-0.019818716 -0.06341097 0.040022265 -0.9997214 0.019365637 -0.013492639
-0.010289188 0.05490253 0.36107802 -0.62778145 0.7654038 0.14158893
-0.028535597 0.0917641 0.11019658 -0.9782541 0.20326059 0.04128054
-0.018932035 -0.10178718 0.031122882 -0.99143845 -0.1305408 0.0029878097
-0.01614888 0.018408561 0.14199187 -0.97045857 -0.23058313 -0.07100447
0.013616255 0.07398403 -0.24658495 0.9184105 -0.37245357 -0.13341857
-0.028208502 0.08088251 0.2299599 -0.98574585 0.12217286 0.11566751
0.0151844155 -0.08078766 -0.030200763 0.9827878 0.17067121 -0.07070686
-0.00977293 0.0395861 0.26247877 -0.07235135 -0.99718577 0.019643659
-0.029820379 0.0853421 0.19434565 -0.9773188 0.2105995 0.022266297
0.015036067 0.082225114 0.39240143 0.8861813 0.46269763 0.02436674
-0.015605384 0.09010068 -0.29718873 -0.99366874 0.10799264 -0.03098392
-0.007761258 0.10919959 -0.13173963 -0.049507458 0.99862134 -0.017447226
0.0014068398 0.046694558 0.39021814 0.036276888 0.95402974 0.29750833
-0.008518492 0.0991105 -0.37779942 -0.46966714 0.8828341 -0.0041028513
0.008816731 -0.040970802 0.0857767 -0.12724812 -0.16191958 0.9785653
-0.012043059 -0.09928127 -0.02310834 -0.949895 -0.16635773 -0.2646215
0.0063290624 0.0019476505 0.12516779 0.22631963 -0.96953917 -0.093665436
-0.016306285 0.0126811145 0.20142607 -0.95980716 0.072810076 0.2710515
0.018009575 0.035142753 0.38364658 0.99088025 0.10461274 0.08492698
0.0139335515 0.059380043 -0.2098713 0.9446809 -0.24947055 -0.2129374
-0.002297728 0.04209157 -0.0955358 -0.073977694 -0.9953197 -0.062177107
0.013754794 0.108639784 -0.1334519 0.29964066 0.95331085 -0.037602365
-0.014340692 0.07963449 -0.33070135 -0.7502383 -0.6604937 -0.029841945
-0.0076099676 -0.025744257 0.4692151 -0.5432656 -0.76199 -0.35246804
0.03201958 0.08004358 -0.015804816 0.99634165 -0.034145866 -0.07834089
0.014864333 0.07079699 0.34436423 0.7818493 -0.62308383 0.021867825
-0.028130816 0.0529766 0.17641118 -0.9963761 -0.08503313 -0.0019992592
0.027801143 0.100612186 -0.00017156568 0.92954344 0.36818066 -0.019800454
0.02265178 0.05197412 -0.09661931 0.89565206 -0.44429824 -0.020158185
-0.01386732 0.018282766 0.40944758 -0.9993891 -0.018543353 0.029622091
-0.019717269 0.058994643 -0.16753441 -0.9819522 -0.17907412 -0.06084759
0.020588249 -0.059748694 0.06555593 0.9758555 -0.12287537 0.18057556
-0.0074019153 -0.034949068 0.2032966 -0.51031315 -0.8185394 0.26376837
0.022695124 0.005793105 0.048660625 0.9909936 -0.03893751 -0.12812331
-0.013178268 0.009683249 0.41456962 -0.94945294 -0.3070264 -0.06537485
-0.015047419 0.11272806 0.16923745 -0.44298446 0.89639145 -0.015715849
0.005576603 0.11016292 -0.08360024 0.02960213 0.9994875 -0.012185524
0.03408035 0.081306905 0.050017625 0.96878016 0.24645238 0.026948337
0.008102094 0.058245238 0.48680767 0.07602608 -0.08462165 0.9935086
0.024096914 0.044127103 0.006969074 0.73134613 -0.6805499 -0.044548552
0.022291653 -0.040534172 0.06487203 0.9976299 -0.022575151 0.0650006
0.024773762 -0.08241857 0.031404804 0.99756473 0.011537995 -0.06878655
0.017100446 0.008888271 0.12825055 0.7744931 -0.6283096 -0.073399946
0.013212522 0.096148886 -0.32004577 0.69923645 0.71218646 -0.06211991
0.026360389 0.032159645 0.14440744 0.86588794 -0.49789393 -0.0483706
0.015607435 0.038567085 0.30585873 0.7186357 -0.68334526 -0.12884882
-0.027824309 0.053978927 0.19077188 -0.9893576 -0.14097773 0.03601246
-0.010713702 -0.028499475 0.18096495 -0.48484516 -0.59340996 -0.64248717
0.017291788 -0.06990229 -0.0010294192 0.93272036 0.30860183 -0.18654123
0.00816801 0.073895164 -0.43310857 0.4302967 -0.9026864 0.0014324858
0.03182196 0.07417871 0.14715658 0.998652 0.044038456 -0.02747451
-0.030285683 0.062535785 0.025826925 -0.99914885 -0.039174087 -0.012920817
0.011215042 0.053193826 0.3610196 -0.0049675605 0.9747127 0.22340637
0.0007808793 0.084515244 0.45693663 0.040584497 0.9957864 -0.08223261
0.028043019 0.09473158 0.13063626 0.95349157 0.30001754 0.029040057
0.030817697 0.085608326 0.16314022 0.9802212 0.19785105 0.0046217097
-0.015606822 0.08689757 -0.450386 -0.99304056 -0.116743185 0.015538988
0.024711147 0.018852297 0.06648057 0.999335 -0.03345552 -0.014501459
-0.01702726 -0.10040485 0.04253658 -0.9326918 -0.1943962 0.3038028
-0.0006858113 -0.036721215 0.183903 -0.13730237 -0.7667428 -0.62709934
-0.02029802 0.028019108 0.18973276 -0.9621713 -0.26219815 0.07401713
0.01166685 0.07310008 0.48585877 0.40591127 0.2851739 0.868281
-0.019650996 0.0062185153 0.037094053 -0.9928005 0.026987825 -0.11669981
-0.021194218 0.05136881 0.26493368 -0.97188514 -0.20613696 0.11378443
0.0043033203 -0.028554395 0.17590445 0.050997388 -0.56576127 -0.8229906
0.013754785 0.09150718 -0.3813544 0.97605014 0.20689012 -0.06725013
-0.0031611258 0.109008834 0.2177046 -0.01969967 0.9714354 0.23648499
0.03250206 0.080740854 -0.008307828 0.98145133 0.17704342 -0.07354595
-0.004808689 0.10134158 -0.3393813 -0.26912746 0.96259004 -0.031476296
0.012214733 -0.039498013 0.196806 0.53463995 -0.84423107 0.03786924
0.024437929 0.056517087 -0.08120849 0.97139233 -0.23405848 -0.040168356
0.015962875 -0.018181544 0.46248195 0.8136646 -0.49977502 -0.29694238
0.022668963 -0.035592888 0.05477473 0.99936646 -0.0035835437 -0.035408463
0.0061771623 -0.041942377 0.00859172 0.21266024 0.406392 -0.8886063
0.0082828095 0.036292773 -0.003964915 -0.121495254 -0.99095374 -0.05700524
-0.013897283 0.025902662 0.3635338 -0.9405695 -0.28361478 -0.1867928
0.025455242 0.08768966 0.23760314 0.90863353 0.3846515 0.16256762
-0.01624909 0.08633614 -0.27148017 -0.9906442 -0.13596115 -0.011775388
0.028611235 0.047702305 0.05186193 0.9257674 -0.3753302 -0.04562727
-0.013769738 0.08276873 0.31233174 -0.8304501 0.5567618 0.01920835
-0.022579804 0.098290145 -0.17592125 -0.98564357 0.16578291 -0.03198198
0.0033846823 0.067273185 -0.2808496 0.16910014 -0.9839427 -0.057112396
0.015337465 0.0059020235 0.4017825 0.89453113 -0.41757798 -0.1595076
-0.02745534 0.09157927 -0.07501475 -0.99881923 0.047185432 -0.011560125
-0.0029236418 0.0391261 0.26887724 -0.063454136 -0.99772793 -0.022638267
-0.011151042 0.10114033 -0.4744254 -0.71205395 0.7018117 0.020967824
-0.01862464 0.0277595 0.13079938 -0.94182587 -0.33589625 -0.011734022
-0.00048274617 0.014652782 0.028377451 0.14898485 -0.05609905 -0.9872469
-0.018196385 -0.025551874 0.028077953 -0.94376874 0.09717 -0.31600407
-0.01767841 0.07703307 0.30379596 -0.94212025 0.31415424 0.11711756
